ply 
format ascii 1.0 
element vertex 938
property float x 
property float y 
property float z
property uchar red 
property uchar green 
property uchar blue 
end_header
0.13161 -0.00106422 0.412309 255 255 255
0.0880635 0.0274879 0.401427 143 131 131
-0.0977799 -0.0588229 0.416119 70 90 116
-0.0462875 -0.035533 0.360674 236 255 255
-0.0471637 -0.039777 0.30285 245 255 255
-0.143081 -0.0435835 0.349871 255 255 255
0.120466 0.0341867 0.413019 39 118 176
-0.12102 -0.0363764 0.331203 166 173 185
-0.123498 -0.0416608 0.339449 129 145 156
-0.137488 -0.0379208 0.336324 255 255 255
-0.129374 -0.0286858 0.332513 255 255 255
0.0720811 0.0193211 0.33112 124 110 112
-0.098133 -0.0410351 0.357313 255 255 255
-0.0502601 -0.0347737 0.349301 155 180 193
-0.132801 -0.0174824 0.306606 255 255 255
-0.108747 -0.0422333 0.428595 255 255 255
-0.0263824 -0.0473545 0.391484 123 123 120
-0.124459 -0.0182288 0.301189 159 180 189
-0.129303 -0.0428062 0.332015 32 37 47
0.0445421 0.0270283 0.355991 255 255 255
-0.138087 -0.0325924 0.379667 7 10 21
-0.056238 -0.0386582 0.318762 114 144 157
-0.135643 -0.0401073 0.379353 49 69 72
-0.0447615 -0.0433072 0.365809 252 255 255
0.0512245 -0.0173845 0.358454 253 251 252
-0.0281601 -0.0383525 0.389994 140 144 127
0.129905 0.0377646 0.422823 152 182 204
0.109758 0.0519469 0.360539 249 253 255
-0.123948 -0.0371436 0.318569 5 9 24
-0.134257 -0.0637203 0.506638 41 64 89
-0.136636 -0.0129133 0.309748 53 68 71
-0.144219 -0.0296529 0.338427 234 247 255
-0.0251791 -0.0131142 0.337501 239 248 192
-0.109134 -0.0161545 0.298505 178 182 197
-0.0904127 -0.0522982 0.391308 67 75 91
-0.114882 -0.0377887 0.311104 148 157 168
0.0369647 0.0137611 0.348704 229 223 216
-0.0408524 -0.0478393 0.347924 130 156 162
-0.0295995 -0.0408176 0.370178 255 255 255
-0.12944 -0.0291872 0.29652 187 195 211
0.0391758 0.0284455 0.319226 234 248 244
-0.0197146 -0.0409937 0.363851 134 123 106
-0.0911209 -0.0548866 0.35211 44 62 88
-0.111926 -0.0426493 0.308698 16 27 38
-0.134257 -0.0197729 0.370342 57 60 67
-0.025227 -0.0427726 0.374527 180 180 175
0.0470306 0.0189956 0.369591 245 233 233
-0.151352 -0.064567 0.445135 84 88 90
-0.124676 -0.0216985 0.335063 32 35 44
-0.13612 -0.0192715 0.334333 144 154 162
0.11092 0.00622484 0.370941 111 164 199
-0.130196 -0.0301275 0.320965 226 241 255
-0.144327 -0.0241531 0.316889 38 46 55
-0.022518 -0.0151074 0.479815 137 145 152
-0.0229994 -0.016857 0.376635 242 218 212
-0.0120537 -0.0108207 0.337354 42 37 39
-0.0968392 -0.0533747 0.388193 178 194 223
-0.124173 -0.0196551 0.322416 167 177 185
0.0366632 0.0687682 0.31563 56 47 43
-0.0928065 0.0154565 0.266665 199 199 199
0.0509038 -0.0098054 0.380277 93 104 91
-0.148848 -0.0560373 0.363438 201 213 219
-0.0844821 -0.0401474 0.369004 155 181 187
-0.141482 -0.0221882 0.324571 144 152 159
-0.114605 -0.0285626 0.338203 105 116 129
-0.155267 -0.00920662 0.324309 173 181 190
-0.0368799 -0.047892 0.43186 255 255 255
-0.0980786 -0.0296246 0.283939 38 42 55
-0.158753 -0.0578013 0.393413 140 144 157
0.0364548 0.0367011 0.415383 228 243 227
-0.116699 -0.00963945 0.238909 153 163 155
-0.128338 -0.0547283 0.371152 133 141 148
0.13088 0.0605006 0.35514 205 209 211
-0.126673 -0.00508475 0.256436 197 198 203
0.11062 0.0501516 0.304894 185 187 184
-0.0945729 -0.0215149 0.335197 134 153 144
-0.105337 -0.00933893 0.235214 213 217 219
-0.015916 -0.0382113 0.388621 89 109 123
0.0832843 -0.0146891 0.313871 159 163 167
-0.106671 -0.0141926 0.307962 156 166 172
0.0388425 -0.0228247 0.329303 57 61 63
0.113436 0.0152023 0.363183 240 252 255
0.0982542 0.00485384 0.443377 253 254 255
-0.0238381 -0.0254791 0.390245 255 255 255
0.0343935 -0.0242846 0.340497 189 165 157
-0.0211099 -0.0137976 0.338524 167 162 109
0.00484508 -0.0253731 0.406581 204 185 160
-0.0919203 0.00803192 0.257448 176 182 185
-0.00639144 -0.0376658 0.368506 62 73 100
-0.0506587 0.0500588 0.27179 166 164 160
-0.128488 -0.0163256 0.318956 92 103 116
0.0559997 -0.0190818 0.390343 211 172 160
-0.0579135 -0.0386153 0.366441 137 162 177
-0.0175764 -0.0116474 0.35218 166 169 134
-0.134656 -0.0543401 0.361879 194 195 200
-0.0483863 -0.0355385 0.396662 147 178 163
0.0187858 0.0251621 0.30756 136 149 150
-0.126407 0.0104478 0.273906 164 162 158
-0.0639606 0.0240048 0.289522 107 112 118
0.0414547 -0.0140694 0.337734 144 133 116
0.0727415 0.0365425 0.346482 195 197 192
-0.0632679 0.0655661 0.287326 147 147 147
0.0349387 0.0242909 0.394299 140 146 147
-0.0428834 -0.0387124 0.327401 235 255 255
-0.122187 -0.0164904 0.338016 98 102 106
-0.148775 -0.0331949 0.340285 106 111 121
0.0215346 -0.0267613 0.259237 198 204 195
0.131808 0.0589081 0.370119 224 224 221
-0.0179283 -0.0101722 0.407283 52 52 64
0.120497 0.0109933 0.385602 207 218 229
0.157598 0.0711189 0.395625 156 159 166
0.0109626 -0.0350414 0.31478 200 204 206
-0.0302012 -0.0455899 0.316532 255 255 255
-0.0259813 -0.0319107 0.402922 99 95 85
-0.0149085 -0.0186615 0.375544 103 111 127
0.0345539 -0.030592 0.272018 187 180 160
0.0274458 0.0659281 0.325145 5 3 0
0.0459699 -0.0213768 0.352778 137 146 146
0.069988 -0.0186882 0.279932 109 115 132
-0.0343618 -0.0408411 0.371931 222 245 242
-0.090633 -0.0486911 0.351204 133 147 170
-0.0181034 -0.0377643 0.344855 172 163 157
0.15037 -0.00338917 0.358949 131 121 122
-0.00139609 -0.0073259 0.34923 93 86 96
-0.108576 -0.0415601 0.398188 49 59 79
0.0152678 -0.0280123 0.247961 99 83 66
0.045929 0.0318327 0.341567 166 179 165
0.127607 0.0221498 0.429663 116 175 228
0.0115712 -0.0249299 0.396266 179 156 157
0.146986 0.066725 0.341697 163 168 176
0.133028 0.0649903 0.353165 164 162 160
-0.0845977 0.021148 0.263526 145 146 151
0.172397 -0.00045308 0.352153 19 27 32
-0.111957 0.00124796 0.259709 140 140 137
-0.00524576 -0.0285871 0.333807 83 88 84
0.0269899 -0.0263651 0.298307 169 153 136
0.140526 0.100358 0.332791 168 169 172
0.0297267 -0.0372261 0.276671 158 127 117
0.10533 0.0140028 0.338384 241 250 255
0.132832 0.0443795 0.426647 237 238 241
0.164809 0.0015274 0.411595 91 106 120
-0.15575 -0.026894 0.411709 77 78 83
0.120513 0.0530695 0.354511 223 223 218
-0.0952056 -0.046919 0.388755 59 68 91
0.0424253 0.00769729 0.428091 214 177 153
-0.114412 -0.0547379 0.36809 27 33 52
0.0404644 -0.00816733 0.381556 167 166 159
-0.0229077 -0.0213101 0.385524 224 198 202
0.0887577 -0.0186778 0.336823 80 103 128
-0.0846322 0.051694 0.237122 61 59 55
-0.0124519 -0.030108 0.333132 89 89 89
-0.112272 0.0101877 0.274963 142 144 144
0.158126 0.0863611 0.399833 129 131 131
-0.00693585 -0.0228529 0.36139 178 185 183
0.0331634 0.0494439 0.326023 21 23 37
-0.0167458 -0.0463556 0.348946 165 156 150
0.0934537 0.0219257 0.347566 219 220 223
-0.124468 -0.030944 0.339277 147 153 170
0.15732 0.0878114 0.366399 167 172 182
0.144938 -0.000811025 0.416458 96 66 67
-0.056303 -0.0382906 0.291868 72 106 90
-0.125018 -0.0173962 0.331136 136 145 156
-0.0119363 -0.0426354 0.357173 106 130 148
-0.0717109 0.0164743 0.225429 150 149 142
0.19186 0.00544976 0.397732 53 61 77
0.0287842 0.036924 0.315814 183 186 195
-0.0947009 -0.0588224 0.326087 206 212 231
0.0451286 -0.0262927 0.342137 161 159 155
0.00298987 -0.0107138 0.428802 208 169 157
-0.103398 -0.00908876 0.237447 163 162 165
0.088491 0.0784325 0.303866 102 108 111
-0.0850428 0.0181841 0.255249 47 46 39
-0.105925 -0.0549315 0.359071 85 93 111
-0.126827 0.00351693 0.254911 181 180 183
-0.111413 -0.0334297 0.30347 108 118 136
-0.12787 -0.0335136 0.322681 159 167 183
0.120605 0.0928579 0.345492 160 165 159
0.0281502 0.0112246 0.390393 156 151 150
0.0480997 0.0793841 0.313746 167 154 133
0.0710354 0.0404573 0.337655 211 213 213
-0.165599 -0.0319717 0.3801 156 166 184
0.00925107 -0.0139435 0.391904 99 84 64
-0.174837 -0.0256556 0.307959 120 139 158
-0.120965 -0.00631341 0.253314 103 104 109
-0.156092 -0.00578788 0.330802 89 89 84
-0.0571287 0.0597399 0.284829 15 9 14
0.0443471 -0.00268829 0.347296 130 113 103
-0.166644 -0.0242715 0.310963 122 141 160
-0.14132 -0.0389274 0.33621 16 54 87
0.0956754 0.0492273 0.27568 73 84 83
0.119058 0.0579146 0.36499 207 212 208
-0.127924 0.00915975 0.317005 78 78 78
0.112075 0.0739467 0.300151 147 156 158
0.0531549 0.048573 0.272756 80 80 77
0.0348505 0.0153946 0.312644 255 255 248
-0.182204 -0.0340403 0.322773 140 154 166
0.0651242 0.0424432 0.286876 172 174 169
0.134925 0.0226785 0.357705 116 124 142
-0.00506876 -0.0418501 0.360006 127 136 147
0.0272848 0.0550198 0.335287 160 165 161
0.0243897 -0.0228318 0.335987 220 174 160
-0.0952896 -0.048536 0.351705 181 189 205
-0.127018 -0.0490836 0.401836 145 157 179
0.158684 -0.00448891 0.398909 110 131 150
0.102753 0.090032 0.309681 139 142 149
0.119117 0.0599448 0.344785 74 79 78
-0.0278586 -0.0102935 0.323569 183 202 196
0.0227088 0.0263783 0.308994 104 116 122
0.0371259 -0.0171662 0.370464 139 110 104
0.176402 0.0832651 0.402791 161 167 170
-0.100366 -0.0368233 0.362376 153 159 178
-0.153908 -0.0230314 0.306976 119 137 161
0.0379162 0.043494 0.361456 71 79 86
0.0028315 -0.0103889 0.38898 169 150 154
0.124599 -0.0143719 0.305891 33 48 62
-0.0884873 -0.0567689 0.358267 173 197 228
0.0319133 0.0580448 0.301576 141 136 124
0.0747108 0.0615126 0.270843 149 153 155
0.145782 -0.0112864 0.303358 112 126 138
-0.100506 -0.0271175 0.317875 89 102 117
-0.124177 0.00120023 0.256312 154 153 156
0.11129 0.0891369 0.305941 128 135 133
0.132678 0.0729472 0.335295 118 124 127
-0.0649315 -0.0363763 0.33348 30 55 77
0.086577 0.0615662 0.323737 117 117 117
0.0269858 0.0603909 0.324905 89 90 69
0.102911 0.0369283 0.293628 213 215 212
0.0598272 0.0338191 0.30262 118 126 133
0.0991952 0.0488856 0.487519 119 96 85
0.150117 0.000881026 0.392257 90 101 114
0.0961624 0.0864496 0.306821 124 130 133
-0.121192 -0.00602763 0.243242 103 104 109
0.0999836 0.0355622 0.407547 207 208 211
-0.1475 -0.0290166 0.336111 156 165 176
-0.110202 0.0107428 0.266104 111 109 107
-0.134902 -0.00310238 0.250629 113 119 120
0.00172887 -0.0188672 0.439846 96 111 74
-0.231638 -0.0455197 0.499443 24 58 95
-0.104393 0.0224276 0.249285 124 122 118
0.171906 0.0171613 0.426001 182 195 214
0.137054 -0.00711554 0.414045 134 164 184
0.132665 0.0437917 0.362266 231 226 214
-0.117505 0.00367546 0.260635 147 145 143
0.124203 0.073165 0.320806 140 152 160
0.209992 0.0118439 0.406112 106 115 128
-0.107254 -0.0127555 0.254949 140 139 130
0.0984909 0.063278 0.301732 104 109 105
0.160156 0.105896 0.376579 145 150 156
0.0365348 0.054583 0.309398 128 124 116
-0.111007 0.00645428 0.265505 148 146 144
-0.143412 0.00056777 0.256049 106 104 105
0.0921675 0.0526769 0.293729 111 116 115
-0.162654 -0.0185436 0.33327 86 105 126
0.0954842 0.0977081 0.256787 214 212 208
0.0964256 -0.0142816 0.395075 67 96 125
0.102412 0.0512539 0.315841 148 154 155
0.043373 0.0554026 0.283005 128 130 130
0.151311 0.0762511 0.352403 186 189 196
-0.047443 0.0450821 0.276206 175 173 169
0.0582366 0.043842 0.335797 153 156 165
0.14902 -0.00176926 0.403985 95 113 128
0.105556 0.0154721 0.354315 153 189 243
0.189414 0.00060864 0.398783 119 133 145
0.0821875 0.0548926 0.320285 150 151 154
-0.0268432 -0.0158858 0.368161 36 48 39
-0.00590124 -0.0106701 0.343718 131 134 83
0.0886672 0.0400844 0.263788 138 144 145
0.109649 -0.00580413 0.365395 219 220 225
0.0366554 0.0420988 0.330455 128 136 152
-0.143601 0.0326938 0.232082 106 108 108
-0.110506 0.0352495 0.243868 131 130 123
0.0538455 0.0401991 0.252539 108 107 100
0.152429 0.0328345 0.366767 191 189 187
-0.0347087 0.00117634 0.287665 104 131 113
0.0579472 0.0441427 0.279562 139 140 132
-0.15696 0.0195045 0.267079 135 136 124
-0.102759 0.0151711 0.28446 112 110 108
0.0882881 0.0536147 0.285453 152 153 156
0.0413973 0.0772341 0.322471 158 151 133
-0.134059 -0.00616608 0.271673 104 111 95
0.0298781 0.0231145 0.404902 107 85 93
-0.0963281 -0.032381 0.352767 142 145 163
0.0935705 0.0472871 0.331561 83 31 41
0.0864376 0.00139103 0.34479 221 220 223
0.0525531 0.0407047 0.284906 102 102 102
-0.156237 -0.0274573 0.333102 4 8 21
0.142824 0.0370405 0.384628 226 220 213
0.154709 0.105212 0.36333 152 158 161
0.0956256 0.0853166 0.314065 178 183 189
0.158884 0.00271359 0.498063 7 20 37
0.0499959 0.0521884 0.28935 105 105 102
-0.0386418 0.0463628 0.280326 184 182 178
-0.140877 0.00251508 0.251417 128 128 123
0.131518 0.0894553 0.350407 142 150 157
0.0623661 0.0450297 0.278767 142 143 133
-0.127429 -0.0149237 0.432342 54 84 49
0.01451 0.00956077 0.392251 97 79 90
0.166995 0.0128159 0.394046 184 200 225
-0.00844307 -0.0340699 0.366095 198 194 184
-0.0982406 -0.035185 0.327217 16 22 39
0.138846 0.0372407 0.349968 179 173 166
-0.114503 0.0375477 0.282991 111 109 105
0.133802 0.0795343 0.333186 137 145 152
0.0851716 0.0628074 0.309313 106 108 103
-0.137168 0.0124473 0.261986 116 118 115
-0.112914 -0.000929281 0.255508 82 82 77
0.122694 0.0953363 0.314599 91 85 76
0.117885 0.0458873 0.358836 213 214 206
0.0376082 0.0583799 0.307605 103 102 93
0.164833 0.0688633 0.378039 145 155 163
0.102906 0.0653981 0.287024 141 147 148
0.120899 0.0824621 0.309487 138 143 142
0.0474971 0.0270956 0.338563 12 27 11
-0.0958091 0.012553 0.262419 79 78 81
-0.167816 0.045139 0.268612 110 112 109
-0.148113 -0.0149472 0.292319 5 29 47
-0.104642 0.00238012 0.282081 105 99 94
-0.119103 -0.0157455 0.349342 0 0 12
0.179049 0.0706991 0.463962 190 186 178
0.000422836 -0.0276081 0.386693 102 87 26
0.0900343 0.047664 0.305875 119 127 132
-0.14792 0.0101981 0.256086 30 30 27
0.0078103 -0.0357051 0.421595 220 179 161
-0.103616 -0.0147801 0.318021 82 99 101
0.0805196 0.036023 0.335136 228 230 230
-0.110949 -0.0278335 0.319034 136 138 133
-0.104233 -0.0128909 0.255392 79 75 69
-0.155777 0.0445399 0.257394 146 146 141
0.061187 0.0416461 0.288044 64 64 61
-0.00755332 -0.0189925 0.361747 119 125 126
0.0859068 0.0580385 0.288028 134 132 128
0.14248 0.00866073 0.375247 147 157 177
0.128572 0.0620422 0.392384 167 175 182
0.221908 0.0979188 0.647496 159 168 179
0.0887127 0.0502246 0.319604 158 164 167
0.104145 0.0789776 0.324278 166 162 156
-0.162369 0.0364472 0.265401 8 14 15
0.0841073 -0.0156334 0.384563 0 12 31
0.0441472 0.0693014 0.322158 152 150 146
-0.0994008 0.00975221 0.277707 156 147 139
-0.0816509 -0.0237601 0.277229 78 82 95
0.0961837 0.0704797 0.294132 158 158 155
-0.144737 -0.0202088 0.312176 69 79 97
0.109318 0.0562987 0.302209 112 118 119
-0.0446301 0.0215805 0.282608 71 86 72
-0.0883827 0.0290173 0.264067 125 124 117
-0.113524 0.00136913 0.248774 132 133 125
0.09614 0.0795211 0.310833 144 143 146
-0.137628 -0.0174238 0.394637 56 65 78
-0.00402094 -0.0229771 0.392471 155 130 111
0.0875039 0.0551054 0.330794 121 122 125
0.140754 0.0630836 0.378813 154 158 160
0.0747009 0.0490076 0.295563 104 103 106
-0.153697 0.00447962 0.326673 116 116 111
0.0571489 0.0500338 0.257756 140 139 130
-0.122642 -0.00109422 0.257961 113 116 123
0.0285641 0.0563601 0.326031 111 108 93
0.0919918 0.0584468 0.307459 105 107 107
-0.140977 0.0151068 0.286776 97 96 89
0.103018 0.0635739 0.299409 149 159 163
-0.00661796 -0.0126408 0.36177 97 108 107
-0.109134 -0.017419 0.27734 43 45 42
-0.021092 -0.00598594 0.363842 38 30 19
-0.0464943 -0.0422619 0.288276 253 255 255
-0.09119 0.0116272 0.249721 116 114 110
0.0502212 0.0480471 0.296518 158 157 150
-0.076289 0.0195277 0.258616 119 119 129
0.0668255 0.04897 0.281408 138 139 131
0.133584 0.0998711 0.329879 139 138 131
0.141077 0.0379397 0.395645 242 231 224
-0.118619 0.000676509 0.258341 166 168 163
0.206551 0.0273294 0.399827 106 119 134
0.136729 0.0742514 0.323074 157 164 176
-0.127758 0.0104887 0.253808 102 104 104
0.0984544 0.0593495 0.32132 135 144 146
-0.0836155 -0.0575099 0.331686 180 196 225
0.0322855 0.0503967 0.313735 167 167 162
0.0748695 0.06691 0.284603 149 149 146
-0.106258 -0.00554643 0.274024 123 123 118
0.134587 -0.00873474 0.392646 118 157 167
0.0505167 0.0650305 0.303581 143 143 140
0.13502 0.106885 0.32853 83 79 73
-0.101419 0.00566136 0.275532 118 111 109
-0.0874321 0.0267343 0.24726 92 88 82
0.00373846 -0.00705388 0.334635 85 85 97
0.131532 0.023564 0.361056 140 150 166
0.134426 0.0680275 0.334134 128 132 136
-0.0888962 0.0074346 0.272998 123 121 122
-0.11482 0.00717749 0.261826 133 133 128
0.148003 0.0187729 0.45622 138 145 159
-0.0826057 0.0577879 0.230312 94 89 88
-0.1454 0.0242869 0.249103 127 133 106
0.0691102 0.0626229 0.276884 63 62 55
0.0552087 -0.0246057 0.39043 223 182 164
0.0276854 -0.0232881 0.295526 135 107 94
0.113565 0.0737287 0.31529 144 154 160
0.0285566 0.0415406 0.437816 10 46 4
-0.107149 -0.014858 0.265828 93 89 83
-0.126529 -0.00727932 0.272547 112 111 114
0.084603 0.038126 0.290817 132 140 145
0.100111 -0.0159177 0.338677 48 53 52
0.0680763 0.0397958 0.282879 163 168 167
0.168199 0.0481853 0.434019 227 218 212
-0.0888715 0.0310116 0.275017 111 111 111
-0.000477097 0.00209459 0.343119 74 87 106
-0.0962003 -0.0380905 0.332323 109 109 119
0.0676546 0.0653431 0.285546 120 119 110
-0.105225 -0.0316961 0.364269 89 93 108
0.0996456 -0.00634819 0.265337 169 182 201
0.146951 0.0485724 0.399167 252 247 235
-0.0966079 0.00799415 0.257636 126 123 127
0.173365 0.00439876 0.386284 83 92 105
0.155632 0.0823189 0.38117 129 133 137
-0.127535 0.0149502 0.273468 67 65 61
-0.0478422 -0.0490174 0.36209 255 255 255
0.0136288 0.00233178 0.398767 131 126 125
0.105575 0.0532407 0.312372 96 106 110
0.128363 -0.0142867 0.390107 86 93 107
0.153979 0.057644 0.360784 112 116 118
0.0522755 0.0419977 0.267571 123 124 116
-0.111767 -0.000572625 0.274403 91 89 85
0.0916724 -0.0151386 0.317463 98 79 83
-0.112954 0.0401433 0.246777 109 103 94
-0.138819 0.000972622 0.259341 143 141 137
0.117812 0.0927587 0.321396 75 80 76
0.0753618 0.0556228 0.283967 119 115 105
-0.0993298 0.0176387 0.284842 67 68 71
0.128711 -0.00217953 0.389381 141 151 167
0.00473474 -0.0314249 0.373297 163 132 81
-0.0884119 -0.0484177 0.321875 64 72 88
-0.0746169 -0.00165553 0.290801 91 100 100
0.0466145 0.0674289 0.34468 102 101 94
-0.18537 -0.0286198 0.326317 37 61 81
0.073259 0.0593851 0.293162 164 165 153
0.0972872 0.0753744 0.290282 124 130 133
0.118867 0.0707362 0.305509 129 139 145
-0.129881 0.00804598 0.265271 90 88 84
-0.138702 0.0107339 0.252445 103 103 103
0.125334 0.0387519 0.326836 134 129 117
-0.110599 0.018506 0.27808 130 128 126
0.0187755 0.013237 0.318587 57 98 39
-0.102878 0.00260816 0.290932 88 84 78
0.12367 0.0565023 0.400342 210 214 216
0.121506 0.0413809 0.342188 201 190 171
0.114683 0.0511844 0.318551 147 147 147
-0.00126889 -0.0126405 0.370733 144 170 109
-0.0306547 -0.0332938 0.350579 91 121 86
-0.15971 0.0125447 0.266084 54 62 71
0.112159 0.0770228 0.298317 87 88 80
-0.104388 0.0113926 0.261009 66 66 61
-0.101318 -0.0258304 0.361076 121 133 88
0.0906197 0.0615703 0.321503 130 132 129
0.0940157 0.0448488 0.351466 255 255 255
0.115061 0.052653 0.337555 183 153 154
-0.0857149 -0.0379193 0.353788 81 98 104
0.191529 0.0171868 0.376198 159 172 191
-0.0838174 0.000650753 0.241431 74 74 71
0.137186 0.0747588 0.334945 106 112 115
0.181113 0.0731951 0.403566 155 165 169
0.0558058 0.0417753 0.265345 138 137 126
0.075756 0.0585415 0.300127 147 148 138
0.00250513 0.0141181 0.337789 48 83 35
0.0949155 0.0436001 0.263577 150 151 154
0.0145055 -0.0220236 0.281196 52 52 52
-0.128712 0.0255167 0.248302 112 112 109
0.150323 0.0113684 0.336492 166 179 198
-0.036443 0.0317235 0.3039 113 117 121
-0.0567141 0.0741241 0.21659 178 168 167
0.0834329 0.0754759 0.315259 76 74 70
0.175162 0.0227522 0.402611 131 146 164
-0.0873224 0.0167281 0.24811 65 60 62
0.124508 0.0477183 0.363732 216 205 186
0.040212 0.0660477 0.350552 128 131 121
0.135651 0.0546832 0.411259 229 230 220
-0.126088 -0.00885806 0.310257 96 98 98
-0.145441 0.0311253 0.235339 131 133 133
-0.185995 -0.019317 0.319807 113 116 134
0.167269 0.0399796 0.381594 169 173 177
0.11439 0.0858052 0.317429 117 119 114
-0.0641641 0.067127 0.211123 178 171 169
0.151711 0.0372836 0.352556 163 163 163
-0.122494 -0.00518544 0.301922 109 109 104
-0.120105 0.013752 0.272056 89 87 85
0.0455481 0.0458531 0.29061 139 135 127
-0.142872 0.0183767 0.267081 89 89 86
-0.137252 0.000332177 0.252056 148 147 138
0.0618247 0.0506422 0.272088 131 130 123
0.0427462 0.0454192 0.278515 113 109 103
0.0887021 0.0390811 0.286965 97 105 110
-0.116614 0.0407697 0.245626 107 102 99
-0.10668 0.0147448 0.261909 86 84 80
-0.101126 -0.00421015 0.283845 117 112 111
-0.0321352 -0.00455727 0.243228 63 78 83
-0.154597 0.0418845 0.248866 92 94 89
0.118972 0.0568835 0.315174 81 86 85
-0.118445 -0.0130951 0.265116 95 109 88
-0.0335395 0.00387058 0.299388 65 103 47
-0.0928162 0.068187 0.215574 182 177 176
-0.0967491 0.0591901 0.213088 178 173 172
0.0872292 0.0699963 0.296486 134 133 126
-0.137544 0.0111448 0.258131 74 75 80
0.093402 0.050538 0.280531 122 126 130
-0.0432157 0.0297733 0.306028 74 111 49
-0.102222 -0.0446499 0.359123 37 45 63
-0.0833848 0.0556558 0.209651 191 186 183
0.0431605 0.0493372 0.316595 163 164 167
-0.0505993 0.0513391 0.282014 38 36 37
-0.115609 -0.0035066 0.264575 103 103 103
0.17874 0.0347047 0.352646 147 162 176
0.172781 0.0142466 0.38516 150 160 176
0.120563 0.0370892 0.325346 151 145 136
-0.013213 -0.031977 0.363658 198 200 197
0.155201 0.0436744 0.390798 212 208 202
0.176076 -0.00174292 0.395076 122 122 134
-0.0366122 0.0206253 0.295003 68 105 56
-0.0267538 0.00422623 0.304536 29 71 20
-0.125352 0.0528366 0.255804 54 50 44
0.0117898 0.0201343 0.328457 55 91 38
0.126439 0.0857798 0.311844 67 71 75
-0.0883665 0.0236237 0.253781 114 110 102
-0.107689 -0.00474048 0.269445 49 43 38
-0.118503 -0.00744126 0.28848 89 83 78
0.200144 0.0261197 0.414581 163 173 193
0.0932301 -0.0200658 0.378941 74 92 116
0.0599992 0.0626761 0.288662 133 128 116
0.0930887 0.119239 0.302949 162 155 153
0.106916 0.0815016 0.313211 154 154 151
-0.137746 0.0115601 0.26986 117 117 114
0.132538 0.0412134 0.392791 239 239 234
0.106591 -0.00339361 0.382441 250 247 251
0.223589 0.0761257 0.470307 93 101 110
-0.0944767 0.0175071 0.26391 74 69 68
-0.0594102 0.0721621 0.223153 198 188 189
0.122443 0.0725572 0.302782 124 133 144
-0.0911821 0.0610584 0.208024 170 165 162
-0.17012 0.041817 0.270635 127 132 128
-0.0277438 -0.00723542 0.242611 66 84 81
0.141308 0.0558166 0.410369 235 228 212
-0.142597 0.0055006 0.251559 121 121 118
-0.122048 -0.00760688 0.240796 83 91 79
0.00838635 0.0046829 0.277711 55 92 32
-0.0869868 0.0608821 0.210513 174 169 168
-0.0965419 0.00948392 0.280754 85 80 77
-0.0712188 0.0601502 0.207016 165 163 164
-0.000156776 -0.0185924 0.353971 78 101 66
-0.139208 0.00830979 0.25479 108 107 112
0.0309112 0.0488697 0.291875 167 162 148
0.188104 0.0340783 0.365689 138 151 168
-0.0678663 -0.029536 0.341041 62 87 69
0.00248778 0.0242559 0.294146 62 92 45
0.169438 0.0477106 0.403652 166 164 162
0.0550898 0.0918092 0.281153 164 163 168
-0.167709 -0.0122618 0.31358 27 52 67
-0.0227893 0.0203052 0.285614 0 15 0
-0.0376353 0.0793316 0.217135 185 179 174
-0.103147 0.00733498 0.297253 101 99 100
-0.0550806 -0.0334034 0.461175 46 73 45
-0.143354 0.0486205 0.253124 146 145 138
-0.10869 0.0444974 0.237906 93 88 85
0.112203 0.0553173 0.342569 173 107 122
0.0889778 0.0685373 0.302516 130 129 122
-0.100635 0.00473159 0.266941 38 35 39
0.189862 0.0153072 0.364673 156 169 186
0.111651 0.103064 0.346522 143 151 158
0.0620661 0.0614035 0.323887 121 122 114
0.166886 -0.00724578 0.409731 86 74 90
0.121891 0.14368 0.261498 168 161 159
-0.0788806 0.0599374 0.224451 185 178 178
0.0691326 0.0483861 0.288609 86 86 83
0.22723 0.00571008 0.420279 85 127 145
0.102485 0.0666779 0.384603 142 150 157
-0.124032 0.00997102 0.294829 118 118 118
0.00361256 0.0112384 0.583786 83 81 77
-0.0937458 0.065576 0.209556 170 165 164
-0.110317 -0.00279712 0.293995 77 74 78
0.0337295 -0.010514 0.356205 46 56 50
-0.15874 -0.0149582 0.295498 38 60 53
-0.120578 0.005433 0.278752 51 49 47
0.0997106 0.0747316 0.369451 133 137 139
-0.0760011 0.0675815 0.211972 118 116 114
0.0526206 0.0909014 0.233067 183 179 173
0.000159642 0.0864013 0.217851 143 141 137
0.133161 -0.0106696 0.360422 73 107 135
-0.0660958 0.0477034 0.186966 161 156 155
-0.0746428 0.0628587 0.216918 188 184 178
0.0893956 0.00345764 0.278668 152 165 182
0.199262 -0.00173807 0.410467 85 93 125
-0.128933 0.0137295 0.269066 63 61 62
0.169547 0.0368053 0.370848 139 149 167
-0.0860223 0.0242749 0.263396 89 88 79
0.0813544 -0.0215587 0.373131 85 126 151
-0.0791757 0.0688549 0.231929 167 162 159
-0.0233589 0.0911164 0.241045 189 180 176
0.0165507 0.0135621 0.302333 69 107 53
0.100468 0.0690865 0.350667 107 113 114
-0.0771532 0.0149738 0.237143 77 69 58
0.146993 0.0429129 0.38396 227 223 215
0.0146381 0.015197 0.287233 83 121 56
0.0683057 0.0631783 0.290114 110 109 100
-0.025439 0.00872498 0.303898 70 106 60
-0.110123 -0.0170914 0.272254 101 106 100
-0.0781587 0.0846685 0.229818 180 173 171
-0.041646 0.00483812 0.271418 51 76 45
0.0974222 0.0496376 0.300859 121 132 133
0.0822655 0.0615018 0.293091 152 151 140
0.111299 0.00380436 0.290713 140 154 175
0.226476 0.0340445 0.418932 146 159 178
-0.0953514 0.0637615 0.207107 184 179 178
0.139506 0.0552307 0.445388 181 185 189
-0.137177 -0.0599554 0.351042 127 140 155
-0.10332 -0.0442141 0.348391 100 106 123
-0.0954818 0.0833231 0.238133 175 170 169
-0.00734277 0.0700654 0.222543 164 157 157
-0.0322826 0.00511025 0.283159 11 51 1
0.138344 0.0169597 0.402579 146 160 181
0.166409 0.0202877 0.454028 163 176 195
-0.00847649 0.0726752 0.241589 168 163 165
0.0591206 0.0261747 0.280868 176 82 109
0.0739597 0.0517647 0.293119 77 81 83
-0.0324704 -0.033657 0.416197 101 129 94
0.0443775 0.0866427 0.247666 189 183 178
-0.0910165 -0.0078001 0.281095 108 116 123
0.0289408 0.0972571 0.236606 151 144 142
0.157284 -0.00941557 0.376519 44 72 93
0.00736786 0.0128989 0.330786 30 59 19
-0.0809451 0.0589525 0.213107 157 155 153
0.210324 0.0437547 0.617282 167 182 198
0.0448258 0.0693106 0.33407 101 97 89
0.0155293 0.0736128 0.27474 162 155 153
-0.0972908 0.00463669 0.275131 87 77 65
0.0824128 -0.00894825 0.325966 246 248 245
0.101278 0.0694268 0.453015 255 255 255
-0.132123 -0.00104677 0.261407 83 85 82
-0.0371443 0.070457 0.235765 184 177 175
0.234945 0.0889142 0.705501 160 172 194
0.105173 0.0886166 0.294107 193 189 181
-0.161665 -0.0603046 0.347257 79 89 97
-0.0811361 0.0584851 0.224078 185 178 176
0.0519939 0.078087 0.306784 155 147 134
0.0800789 0.0499473 0.318516 170 174 176
-0.0424295 0.0709318 0.21489 175 168 166
-0.117014 -0.00734586 0.26508 65 64 67
0.105678 0.089826 0.285254 196 191 190
0.0139024 0.0854551 0.218761 176 171 168
0.130376 0.0373632 0.371377 243 238 226
-0.0988797 0.0178699 0.252146 82 81 84
-0.103231 -0.00986089 0.281558 120 120 128
-0.104296 -0.00942501 0.257133 86 82 76
-0.0682825 0.0671496 0.2141 172 165 163
-0.138556 0.00540053 0.256183 76 75 78
-0.135336 0.0441409 0.26521 108 106 102
0.139973 0.093193 0.330287 163 168 167
0.164989 0.0641619 0.347784 163 167 169
-0.139377 0.0368028 0.242973 94 95 85
0.0115068 0.0207165 0.296321 33 71 17
-0.0401363 0.0773999 0.220172 183 178 175
0.186502 0.0745537 0.391118 145 160 167
-0.098729 -0.0133859 0.278114 81 84 91
-0.0274495 0.084811 0.220855 157 152 149
-0.0996539 0.0102164 0.299048 98 96 97
-0.0544527 0.071548 0.218169 181 171 172
-0.101 0.0274492 0.270348 120 116 106
-0.0560143 0.0534207 0.306127 80 85 93
-0.0496729 0.0718372 0.222456 189 182 180
0.114665 0.0383861 0.290415 106 111 119
0.164107 0.0344911 0.404135 154 165 178
-0.129771 0.0290232 0.24621 59 59 56
0.0725555 0.0654439 0.290282 110 109 98
0.113084 0.0563499 0.301851 91 100 100
0.0917806 -0.0219206 0.311541 49 73 93
0.0502825 0.0434255 0.294462 136 137 140
-0.15061 -0.0118387 0.31156 55 78 75
-0.0342479 0.0791931 0.230169 168 161 159
0.0555664 0.0923162 0.233681 181 176 175
0.118218 0.0850818 0.304356 124 123 112
0.126994 0.0260623 0.307663 132 127 126
0.173552 0.0593626 0.338071 134 146 154
0.0745696 0.0553512 0.267356 131 126 125
-0.131935 0.0646912 0.219193 162 160 158
0.156869 0.08997 0.324789 162 164 164
-0.134108 0.033832 0.288637 50 49 52
0.189947 0.0600996 0.352998 134 145 156
-0.0879981 0.0431405 0.192436 179 174 173
0.0029657 0.0140098 0.311539 74 108 63
-0.0991166 -0.00416556 0.259217 90 88 84
-0.108117 -0.056412 0.382374 40 50 68
-0.0338853 0.0245632 0.303534 34 77 17
-0.0761111 0.0649305 0.207274 177 172 171
-0.122357 -0.0224515 0.25634 61 88 102
-0.0478558 0.069089 0.244305 187 178 174
0.163162 0.0469346 0.317706 150 160 176
0.0198938 -0.0172365 0.337511 69 69 66
-0.0497987 0.0458403 0.187311 178 169 165
-0.203561 -0.00963427 0.343647 75 87 80
-0.0950773 0.061066 0.209683 188 183 180
-0.0189718 0.0233735 0.311901 80 112 65
-0.11921 0.022682 0.22489 112 112 107
-0.113086 0.00655747 0.21758 93 94 86
-0.0202842 0.00655163 0.314914 70 115 61
-0.0682882 0.0621049 0.199579 179 177 175
0.138244 0.00802388 0.343956 139 154 172
-0.0388753 -0.000642134 0.335779 0 22 0
-0.0276973 0.0782952 0.239334 187 180 180
-0.106907 0.0262136 0.276002 83 85 80
0.133449 0.0377494 0.339286 185 179 172
0.0453551 0.0516368 0.283452 121 121 116
-0.00807561 0.00387525 0.341311 40 63 46
0.153542 0.0684521 0.364123 97 102 112
-0.0903532 0.0240962 0.250697 111 107 101
-0.089656 0.058565 0.230427 179 173 168
-0.0698082 0.0520513 0.200491 176 171 170
-0.0517898 0.0782721 0.217705 165 158 156
0.135102 0.0001942 0.360567 166 178 200
0.097309 0.0123771 0.446986 231 227 219
-0.0811511 0.0609226 0.211024 201 199 197
-0.0445999 0.0619256 0.220076 191 181 180
-0.121909 -0.0379757 0.379949 118 126 142
0.0769252 0.0517434 0.325283 171 177 180
-0.036955 0.0240572 0.322249 65 96 56
-0.112065 -0.00657374 0.23959 57 59 59
0.133329 0.0938683 0.341668 106 116 124
-0.0359598 0.0774637 0.218659 181 176 173
0.0114747 0.0150432 0.324513 50 94 29
0.0296401 0.0748449 0.207929 169 162 160
-0.0874396 0.067071 0.214949 157 152 151
0.173298 0.0122282 0.397002 143 157 180
0.101495 -0.0185409 0.379119 110 113 122
-0.0498562 0.0735567 0.218374 179 172 170
-0.156118 0.0386579 0.261614 112 111 102
0.238062 0.0302823 0.474683 149 157 175
-0.0257801 0.00783155 0.325306 32 68 26
0.056542 0.0422597 0.285664 121 121 116
-0.0293915 0.0717017 0.212814 153 146 144
-0.103327 -0.00725057 0.288326 78 78 86
0.0146285 0.0898115 0.234282 183 176 176
-0.131105 -0.0117766 0.322433 76 79 90
0.203446 0.0371894 0.411544 132 144 166
-0.012081 -0.00843247 0.280847 44 85 39
-0.0476225 0.0856011 0.228535 160 153 151
-0.120397 0.0325046 0.240691 110 106 100
-0.124722 0.0301315 0.234809 100 100 100
0.0790046 0.0795926 0.291629 178 169 161
-0.0802257 -0.0230519 0.282386 54 65 66
-0.0174286 0.00644732 0.328255 4 44 0
-0.0987282 0.0762715 0.246086 183 176 174
0.186804 0.0691871 0.389583 140 154 166
-0.139632 -0.0251957 0.339061 185 190 198
-0.025975 0.0649894 0.21382 183 176 176
0.178929 -6.74789e-05 0.463771 30 64 90
0.0884214 0.0583994 0.298021 106 104 100
0.0653112 0.0462299 0.309552 169 173 175
-0.0591586 -0.0320395 0.351442 70 96 83
-0.0825054 0.0664168 0.229124 171 166 165
-0.123884 0.0411784 0.23673 175 173 169
0.0209059 0.0718267 0.268532 183 176 176
-0.140088 0.00734683 0.264903 100 100 97
-0.0323804 -0.0417962 0.33704 74 99 81
-0.111443 -0.00474994 0.26532 76 74 70
-0.0990781 0.0144349 0.245696 79 81 81
-0.113545 0.062588 0.215729 178 173 172
-0.122256 0.0638223 0.223925 182 177 176
-0.0430532 0.0234977 0.303891 79 109 60
-0.0104219 0.0214738 0.290289 37 69 8
0.106786 0.0483041 0.467486 255 255 255
0.121045 0.00592418 0.333346 160 173 192
0.0183816 0.0899571 0.224006 159 154 153
-0.0559144 -0.0304235 0.314283 78 103 76
-0.124449 -0.00034138 0.246092 68 66 64
-0.115476 0.0367845 0.245965 88 86 84
-0.0197347 0.0759807 0.232436 181 171 170
-0.061441 -0.0293799 0.382248 59 90 66
0.149381 0.024969 0.3393 160 168 184
-0.0348073 0.00142045 0.354785 0 38 0
-0.0280443 0.0781378 0.249002 182 175 175
-0.0392181 0.0653829 0.230161 176 169 169
-0.0995144 0.0565441 0.203651 169 164 161
-0.0994812 0.0276572 0.212803 100 100 95
0.00527082 0.0936873 0.221936 171 166 165
0.0380572 0.0497534 0.318965 151 158 153
0.057071 0.068331 0.305558 145 136 128
-0.0874944 0.0677275 0.243977 183 176 176
-0.117048 0.0314205 0.207809 136 131 130
-0.159182 0.0181591 0.265909 101 100 105
0.202837 0.0159985 0.392743 123 136 151
0.141756 0.0208215 0.291398 145 159 171
0.0399218 0.0849603 0.220057 87 85 81
0.040262 0.0882675 0.228507 165 158 156
0.010232 0.10058 0.232527 128 121 119
-0.0868135 0.0606905 0.241048 156 150 145
0.0479344 -0.0147292 0.370443 118 136 133
0.093704 0.049202 0.371655 228 230 230
-0.0987477 -0.0232475 0.322829 80 88 97
-0.0249371 0.07767 0.224727 186 176 177
0.000168598 0.0858033 0.228849 183 178 177
0.11272 0.0915867 0.32126 59 69 77
-0.109863 -0.00308888 0.259923 95 93 91
-0.0532913 0.0124273 0.296397 64 89 73
-0.0971421 0.0593783 0.202656 181 176 175
-0.0131548 0.00900204 0.318742 52 84 51
-0.101186 0.0608987 0.209172 157 152 151
-0.135451 -0.0272181 0.311949 133 129 140
0.0673777 0.105149 0.250321 164 159 156
-0.117628 0.0106834 0.289744 50 50 50
0.0364323 0.100131 0.237001 144 142 138
0.0197045 0.00743722 0.269188 23 52 10
0.15958 0.0398124 0.400094 197 195 191
-0.0662936 0.0828115 0.224871 184 174 173
0.041126 -0.0339185 0.363492 224 182 160
-0.0549307 0.0780386 0.21692 177 167 166
-0.0341094 0.00142152 0.266709 96 124 101
-0.0183193 0.0734902 0.237686 176 169 167
-0.0513485 0.0592869 0.220531 183 176 174
0.131835 0.020641 0.385619 155 169 190
-0.100781 0.0569696 0.2294 184 179 176
0.0272969 0.104574 0.25111 167 162 161
-0.14685 0.0435985 0.250451 86 85 74
-0.0244765 0.000595888 0.312741 51 96 28
0.0251908 -0.00975423 0.352863 84 70 75
-0.143635 0.0839145 0.246351 167 162 161
0.16284 0.040075 0.359947 93 101 110
-0.134377 0.0317605 0.238852 67 70 58
-0.0363021 -0.0329918 0.344209 43 66 51
0.0553638 0.0942144 0.262338 183 178 175
-0.0641856 0.0247199 0.317648 27 51 9
-0.0717005 0.0705116 0.214389 175 168 168
0.0376129 0.0983596 0.272937 183 181 179
-0.0336926 -0.00823149 0.291599 63 90 51
-0.0280853 0.00729579 0.29682 2 41 0
-0.033647 0.0121672 0.294908 0 23 0
-0.0649105 0.00797263 0.292778 86 97 96
-0.116217 0.00140149 0.274733 105 103 101
0.122385 0.0299302 0.375426 149 162 179
0.0414922 0.0296202 0.401393 255 255 250
0.0290322 0.0539122 0.262709 173 163 151
-0.00581338 0.0156798 0.366491 50 78 43
-0.0259253 0.0765034 0.231409 186 176 175
0.117314 0.0925188 0.301958 137 131 124
-0.0679589 0.068249 0.226776 174 164 163
-0.0874665 0.0541121 0.212508 166 164 160
0.0153534 0.0329458 0.296924 67 75 80
-0.0963859 0.00215428 0.291431 91 90 93
0.0448531 0.0928015 0.240703 183 176 174
0.197719 0.0306145 0.370192 125 138 155
0.215428 0.0790271 0.38749 136 148 156
0.0566701 0.110955 0.234893 171 169 165
0.0217806 0.0863377 0.223889 164 157 155
-0.0985662 0.0590245 0.220025 178 173 172
0.123696 0.040663 0.306251 87 90 99
-0.0147155 0.0880345 0.230274 156 149 147
-0.131272 -0.0502306 0.340916 218 216 217
-0.125258 0.0364774 0.237694 111 110 103
-0.0209414 0.0203755 0.296599 23 63 13
0.0324436 0.0990718 0.245996 170 163 161
-0.104486 0.0195847 0.250459 60 60 60
0.0864558 0.122141 0.27067 161 159 157
0.264764 0.0319678 0.480731 149 162 179
-0.110561 0.0575765 0.203995 184 179 176
0.00482086 0.0913513 0.227478 162 157 156
0.175023 0.00475355 0.363206 151 161 181
0.182805 -0.00458963 0.405963 88 105 111
0.0422325 0.0690525 0.294726 204 189 169
0.0261232 0.0993475 0.231342 171 166 165
0.13606 0.138317 0.249173 164 159 156
-0.0837969 0.00390772 0.278696 74 78 82
-0.0694453 0.0635799 0.215873 177 170 168
0.200606 0.0119497 0.398814 168 181 198
0.182036 0.0380496 0.378377 147 160 175
-0.106258 -0.0454388 0.403758 40 49 74
0.210666 0.035795 0.447345 167 179 201
-0.0376347 0.0920894 0.282298 137 136 141
0.100396 0.111787 0.349107 185 176 170
0.10635 0.0418515 0.519362 137 102 89
-0.0563609 0.0623423 0.323424 144 149 155
0.0200959 -0.0105042 0.338446 61 44 50
-0.110436 0.00618145 0.229411 95 95 95
0.0942785 0.100517 0.263185 175 170 167
0.134063 0.0211152 0.277895 129 145 156
-0.0645805 0.0716011 0.223627 162 152 153
0.0638788 0.052252 0.28757 133 129 121
0.138337 0.143055 0.272438 171 166 163
0.185816 0.0206219 0.401093 143 153 171
0.0529957 0.0954993 0.250315 175 170 169
-0.0176458 0.041055 0.271948 147 144 148
-0.0745174 0.0577873 0.24213 139 137 133
-0.116655 0.0456251 0.200667 174 172 170
0.14124 0.0655619 0.338498 77 81 85
-0.0461434 0.0819946 0.234059 186 179 179
0.046459 0.112052 0.244419 176 172 166
-0.0315528 0.0699728 0.242887 163 156 156
0.0256961 0.0967539 0.256135 169 163 158
-0.0487012 0.0511456 0.183001 196 190 185
-0.0196405 0.0815417 0.233037 179 172 170
-0.00641539 0.0829201 0.260157 112 112 122
-0.0538797 0.0746521 0.216689 176 169 169
-0.174322 0.0420947 0.284643 10 14 0
-0.104226 -0.000788792 0.283135 88 77 72
0.19871 0.0789392 0.399855 148 158 174
0.0155772 -0.0169585 0.506605 221 183 164
0.0106576 0.0192889 0.30506 72 101 61
0.00727142 -0.00254281 0.389209 66 58 64
-0.0313068 0.0815563 0.215845 179 172 170
-0.146778 -0.00347593 0.283997 21 37 4
-0.194771 -0.0677257 0.36054 58 73 91
0.0158591 -0.00848363 0.349676 61 48 56
0.096057 0.0741666 0.312635 138 136 132
0.0867745 0.0521655 0.3514 174 81 105
-0.0694591 0.0976675 0.265839 175 168 166
0.0177938 0.0914204 0.234701 175 168 166
0.110774 0.0839214 0.230084 164 162 160
-0.137707 0.00655464 0.248523 53 53 50
-0.0582039 0.0616776 0.225991 167 160 158
-0.0424194 0.065445 0.237328 160 153 151
0.0111586 0.0927226 0.237107 174 167 165
-0.100036 0.0442378 0.24239 58 58 53
-0.122415 0.0535126 0.211278 168 166 164
0.0173357 0.0857898 0.260566 120 120 128
0.113037 0.0855987 0.237211 173 168 165
-0.0184398 0.0727858 0.242035 182 175 178
-0.118855 0.060064 0.213149 171 166 165
0.122333 -0.00408634 0.319606 175 184 207
-0.0585368 0.0693071 0.213402 163 153 152
0.110281 0.0581417 0.349265 149 151 148
-0.112494 -0.0153341 0.312921 59 64 74
-0.0166402 0.0914594 0.22942 164 159 156
-0.0962695 -0.0287448 0.337131 74 79 89
0.0475325 0.0477136 0.315822 145 148 155
-0.129158 -0.0552584 0.308166 38 42 55
0.0589964 0.0811317 0.307532 132 131 120
0.210557 0.175265 0.360288 149 144 141
-0.100661 -0.00434195 0.269212 60 55 57
-0.0498449 0.0567255 0.233144 161 160 163
0.0960697 0.13105 0.301946 154 149 148
-0.066511 0.0645603 0.226552 189 183 178
0.0757646 0.0479315 0.342972 151 144 147
-0.123208 -0.0211432 0.386961 35 43 59
0.000695575 0.0844684 0.221995 164 162 158
-0.00438946 0.0810369 0.239008 175 170 167
0.0967628 0.0954918 0.241192 173 173 170
