ply 
format ascii 1.0 
element vertex 938
property float x 
property float y 
property float z
property uchar red 
property uchar green 
property uchar blue 
end_header
0.181104 -0.00757221 0.511235 255 255 255
0.140533 0.0359851 0.533954 143 131 131
-0.101049 -0.048924 0.660819 70 90 116
-0.0308416 -0.0297768 0.46363 236 255 255
-0.0368066 -0.0392837 0.33548 245 255 255
-0.151492 -0.0277364 0.476182 255 255 255
0.175601 0.0378278 0.53173 39 118 176
-0.116089 -0.0251012 0.407077 166 173 185
-0.122715 -0.029569 0.434667 129 145 156
-0.136095 -0.0243102 0.423576 255 255 255
-0.130733 -0.012984 0.431951 255 255 255
0.0950657 0.0144191 0.374111 124 110 112
-0.0916297 -0.0308462 0.461662 255 255 255
-0.0371757 -0.02872 0.44823 155 180 193
-0.128769 -0.00370544 0.370479 255 255 255
-0.121054 -0.0194272 0.741955 255 255 255
-0.00398834 -0.0445749 0.539534 123 123 120
-0.116881 -0.00729 0.350852 159 180 189
-0.133 -0.0300106 0.432203 32 37 47
0.0731733 0.0295771 0.426033 255 255 255
-0.153043 -0.0088447 0.573754 7 10 21
-0.0451545 -0.0360022 0.368315 114 144 157
-0.147127 -0.020615 0.558125 49 69 72
-0.0290963 -0.0391721 0.472591 252 255 255
0.0802657 -0.0202225 0.435832 253 251 252
-0.00564477 -0.0324283 0.542897 140 144 127
0.194039 0.044419 0.561616 152 182 204
0.142409 0.0484848 0.419335 249 253 255
-0.118999 -0.026683 0.382466 5 9 24
-0.250089 -0.0380976 1.53193 41 64 89
-0.134461 0.00311519 0.382695 53 68 71
-0.147545 -0.0121438 0.44351 234 247 255
-0.00775165 -0.0091222 0.40245 239 248 192
-0.103202 -0.00550286 0.353442 178 182 197
-0.0842727 -0.0432212 0.547484 67 75 91
-0.106348 -0.0297254 0.357659 148 157 168
0.0638669 0.0160628 0.420019 229 223 216
-0.0261233 -0.0466344 0.416139 130 156 162
-0.0104845 -0.0377402 0.476757 255 255 255
-0.119548 -0.020333 0.33218 187 195 211
0.0588714 0.0260421 0.35768 234 248 244
0.000249727 -0.03858 0.483298 134 123 106
-0.0872746 -0.0484779 0.460507 44 62 88
-0.104714 -0.0352536 0.355942 16 27 38
-0.144646 0.00654245 0.546069 57 60 67
-0.00489128 -0.0397729 0.501417 180 180 175
0.0811812 0.0244869 0.464234 245 233 233
-0.177773 -0.0485368 0.744679 84 88 90
-0.125848 -0.00421765 0.441861 32 35 44
-0.146972 0.00346074 0.467482 144 154 162
0.145573 -0.000518531 0.436637 111 164 199
-0.126034 -0.0175637 0.391285 226 241 255
-0.142675 -0.00891105 0.391265 38 46 55
0.0263522 0.0218553 0.931102 137 145 152
0.000389352 -0.00692484 0.508274 242 218 212
0.00685989 -0.00677873 0.40988 42 37 39
-0.0941271 -0.0437596 0.550601 178 194 223
-0.121386 -0.00476439 0.404365 167 177 185
0.0580578 0.0682311 0.355908 56 47 43
-0.0802714 0.0197131 0.286583 199 199 199
0.0858041 -0.00941715 0.479122 93 104 91
-0.153475 -0.0428776 0.482933 201 213 219
-0.0776604 -0.0294773 0.501946 155 181 187
-0.144282 -0.00437858 0.419527 144 152 159
-0.112616 -0.0143762 0.438118 105 116 129
-0.163721 0.0150275 0.435421 173 181 190
-0.0114042 -0.0401962 0.693095 255 255 255
-0.0886533 -0.024626 0.309631 38 42 55
-0.177783 -0.0412164 0.58533 140 144 157
0.0849609 0.0580725 0.58257 228 243 227
-0.0971797 -0.0105416 0.224052 153 163 155
-0.133925 -0.0426385 0.515416 133 141 148
0.154584 0.0489268 0.387859 205 209 211
-0.11113 -0.00102081 0.262667 197 198 203
0.119637 0.0330366 0.306797 185 187 184
-0.0892398 -0.00819071 0.432341 134 153 144
-0.0866333 -0.0119579 0.216252 213 217 219
0.00923713 -0.0342118 0.530252 89 109 123
0.0963613 -0.0262623 0.327402 159 163 167
-0.0982629 -0.00374493 0.363263 156 166 172
0.0576463 -0.0281904 0.371262 57 61 63
0.148716 0.00956636 0.429473 240 252 255
0.163743 0.0103861 0.615216 253 254 255
0.000959007 -0.0159994 0.544755 255 255 255
0.0561987 -0.0281181 0.397788 189 165 157
-0.0032286 -0.00937355 0.410843 167 162 109
0.0399135 -0.0184397 0.572096 204 185 160
-0.0788192 0.00966163 0.266128 176 182 185
0.0165496 -0.036621 0.471168 62 73 100
-0.0365542 0.052619 0.297488 166 164 160
-0.128849 0.000665269 0.408151 92 103 116
0.0926538 -0.0207416 0.492864 211 172 160
-0.0453672 -0.0309263 0.492317 137 162 177
0.0031399 -0.00452913 0.448579 166 169 134
-0.142874 -0.0417355 0.500555 194 195 200
-0.0293958 -0.0263007 0.551399 147 178 163
0.0360016 0.0237854 0.34237 136 149 150
-0.116178 0.0206595 0.308067 164 162 158
-0.0507336 0.030295 0.32734 107 112 118
0.0627926 -0.01817 0.387001 144 133 116
0.104516 0.0384707 0.417213 195 197 192
-0.0483428 0.078082 0.339093 147 147 147
0.0762792 0.0385783 0.532336 140 146 147
-0.0306113 -0.0365061 0.390324 235 255 255
-0.121832 0.0019323 0.446198 98 102 106
-0.155766 -0.0150668 0.454657 106 111 121
0.0276817 -0.0343021 0.263978 198 204 195
0.161453 0.0502987 0.416426 224 224 221
0.0135794 0.00795432 0.609092 52 52 64
0.161566 0.00558709 0.465311 207 218 229
0.193123 0.0622842 0.451423 156 159 166
0.025993 -0.0389553 0.358376 200 204 206
-0.0184039 -0.046507 0.361844 255 255 255
-2.55955e-05 -0.0222027 0.588792 99 95 85
0.00967758 -0.0108222 0.499165 103 111 127
0.039446 -0.0402296 0.263926 187 180 160
0.0507406 0.0685841 0.37489 5 3 0
0.0712809 -0.0253845 0.417187 137 146 146
0.0713252 -0.0325613 0.261682 109 115 132
-0.0158816 -0.03696 0.48445 222 245 242
-0.0849931 -0.0411275 0.453015 133 147 170
-0.000832732 -0.0370131 0.421829 172 163 157
0.178817 -0.017572 0.399526 131 121 122
0.0212555 -0.00214972 0.43607 93 86 96
-0.115382 -0.0233041 0.62079 49 59 79
0.0180156 -0.0371066 0.231768 99 83 66
0.0705471 0.0315062 0.394416 166 179 165
0.191436 0.0255101 0.570422 116 175 228
0.0464913 -0.0192497 0.552097 179 156 157
0.164963 0.0507286 0.361497 163 168 176
0.156944 0.0534665 0.386255 164 162 160
-0.0717301 0.0240002 0.280561 145 146 151
0.197435 -0.0175312 0.382095 19 27 32
-0.0984512 0.00518675 0.271191 140 140 137
0.0124332 -0.0284074 0.400175 83 88 84
0.0379981 -0.0334005 0.311608 169 153 136
0.157074 0.0828563 0.350405 168 169 172
0.0374739 -0.0454738 0.284575 158 127 117
0.129251 0.00495182 0.376701 241 250 255
0.194258 0.0500952 0.556238 237 238 241
0.214121 -0.00921018 0.496816 91 106 120
-0.194637 0.0115846 0.722002 77 78 83
0.144635 0.0427848 0.38926 223 223 218
-0.0917815 -0.0352339 0.555075 59 68 91
0.097649 0.0247486 0.631317 214 177 153
-0.115233 -0.0446913 0.500144 27 33 52
0.0735166 -0.0066674 0.478521 167 166 159
0.00164904 -0.0113518 0.531693 224 198 202
0.112461 -0.0282253 0.380228 80 103 128
-0.0693448 0.0483539 0.24005 61 59 55
0.00389213 -0.030605 0.383882 89 89 89
-0.10115 0.0184856 0.305917 142 144 144
0.190516 0.0754694 0.448563 129 131 131
0.0158582 -0.0190286 0.458833 178 185 183
0.0556572 0.0503777 0.373511 21 23 37
0.00065282 -0.0470672 0.430274 165 156 150
0.122269 0.017102 0.401897 219 220 223
-0.12373 -0.0162449 0.439206 147 153 170
0.180786 0.0728059 0.396745 167 172 182
0.195244 -0.00899051 0.511894 96 66 67
-0.0477915 -0.0369636 0.323955 72 106 90
-0.125616 0.000585126 0.433802 136 145 156
0.00737373 -0.0431974 0.433749 106 130 148
-0.0579291 0.00878262 0.207968 150 149 142
0.218043 -0.0129619 0.429522 53 61 77
0.0485669 0.0364183 0.356738 183 186 195
-0.0863799 -0.0543204 0.378553 206 212 231
0.0681536 -0.0313906 0.399998 161 159 155
0.0458106 0.00625706 0.652125 208 169 157
-0.0864284 -0.0108442 0.222955 163 162 165
0.102249 0.0645666 0.3161 102 108 111
-0.0718267 0.0189747 0.264054 47 46 39
-0.108494 -0.0460122 0.494993 85 93 111
-0.112637 0.00847931 0.266274 181 180 183
-0.102963 -0.025691 0.346257 108 118 136
-0.12473 -0.0212781 0.396706 159 167 183
0.14459 0.0826156 0.379703 160 165 159
0.0660201 0.0222781 0.52205 156 151 150
0.0681439 0.0747037 0.344897 167 154 133
0.0970964 0.0385158 0.388803 211 213 213
-0.193831 -0.00310111 0.591629 156 166 184
0.0417383 -0.00691386 0.52436 99 84 64
-0.176143 -0.00808259 0.378688 120 139 158
-0.10524 -0.00339827 0.255742 103 104 109
-0.170829 0.0232583 0.466226 89 89 84
-0.0417857 0.0678151 0.326319 15 9 14
0.0715242 -0.00295011 0.420125 130 113 103
-0.166306 -0.00738944 0.381362 122 141 160
-0.135055 -0.0264161 0.407196 16 54 87
0.104962 0.0351727 0.280411 73 84 83
0.150686 0.0524472 0.418602 207 212 208
-0.127315 0.0318647 0.412849 78 78 78
0.120578 0.0548885 0.301278 147 156 158
0.0631902 0.0375614 0.278441 80 80 77
0.0521142 0.0115958 0.344529 255 255 248
-0.18858 -0.0150897 0.411297 140 154 166
0.0762568 0.0310996 0.294713 172 174 169
0.161207 0.0111998 0.396195 116 124 142
0.0158517 -0.0426456 0.445105 127 136 147
0.052524 0.0599376 0.395711 160 165 161
0.0475035 -0.0237969 0.413161 220 174 160
-0.0891286 -0.0406398 0.448177 181 189 205
-0.127438 -0.0342377 0.567314 145 157 179
0.203637 -0.0162462 0.475459 110 131 150
0.117783 0.0755548 0.324859 139 142 149
0.136733 0.0456491 0.363913 74 79 78
-0.0125003 -0.00536086 0.388968 183 202 196
0.0398326 0.0239252 0.34077 104 116 122
0.0685491 -0.0167439 0.468685 139 110 104
0.214336 0.0737871 0.461108 161 167 170
-0.101084 -0.022304 0.5115 153 159 178
-0.151291 -0.00800989 0.370684 119 137 161
0.0708552 0.0532853 0.453336 71 79 86
0.034384 -0.00100961 0.528066 169 150 154
0.141127 -0.0291512 0.32404 33 48 62
-0.082275 -0.0510232 0.462741 173 197 228
0.0495166 0.0545627 0.330109 141 136 124
0.0815412 0.0451397 0.267853 149 153 155
0.161671 -0.028203 0.317272 112 126 138
-0.0925079 -0.0179902 0.378682 89 102 117
-0.109602 0.00564791 0.266121 154 153 156
0.125543 0.0739343 0.319788 128 135 133
0.154932 0.0613685 0.365177 118 124 127
-0.0537212 -0.0312362 0.401884 30 55 77
0.107185 0.0539141 0.354264 117 117 117
0.0502431 0.0635386 0.376471 89 90 69
0.113673 0.0228217 0.300644 213 215 212
0.0764085 0.027406 0.327925 118 126 133
0.192842 0.0813784 0.757099 119 96 85
0.193613 -0.00933696 0.467855 90 101 114
0.111277 0.0729057 0.322438 124 130 133
-0.102769 -0.00545675 0.235199 103 104 109
0.15763 0.0457449 0.547398 207 208 211
-0.150783 -0.0113488 0.438044 156 165 176
-0.0981149 0.0169355 0.288373 111 109 107
-0.117222 0.000401193 0.252286 113 119 120
0.0449352 -0.00509526 0.665169 96 111 74
-0.436818 0.0238697 1.33312 24 58 95
-0.0899437 0.0242594 0.257702 124 122 118
0.241881 0.0135389 0.555598 182 195 214
0.192758 -0.0140306 0.526974 134 164 184
0.155979 0.0314509 0.393768 231 226 214
-0.104268 0.0087169 0.275396 147 145 143
0.139428 0.0577899 0.336017 140 152 160
0.255952 -0.00395945 0.471542 106 115 128
-0.0929381 -0.0107951 0.255728 140 139 130
0.111178 0.0491664 0.312247 104 109 105
0.183966 0.0896917 0.407421 145 150 156
0.0555487 0.0519695 0.342716 128 124 116
-0.0979303 0.011559 0.283117 148 146 144
-0.125003 0.00531304 0.261755 106 104 105
0.104729 0.0400548 0.304987 111 116 115
-0.171098 0.00424823 0.446018 86 105 126
0.0962882 0.071491 0.243218 214 212 208
0.143612 -0.0183949 0.507539 67 96 125
0.116067 0.0372882 0.327725 148 154 155
0.0559781 0.0461809 0.294392 128 130 130
0.170214 0.0596865 0.37378 186 189 196
-0.0328406 0.0460374 0.29855 175 173 169
0.0837889 0.0436104 0.388617 153 156 165
0.196765 -0.0112415 0.490746 95 113 128
0.138185 0.0100875 0.416049 153 189 243
0.240902 -0.0130806 0.478724 119 133 145
0.1017 0.047053 0.348657 150 151 154
-0.00548987 -0.00761228 0.476764 36 48 39
0.0147254 -0.00672329 0.420908 131 134 83
0.0908173 0.0218105 0.251879 138 144 145
0.14071 -0.0147935 0.422071 219 220 225
0.0589582 0.0416115 0.375737 128 136 152
-0.126357 0.036192 0.239201 106 108 108
-0.095365 0.0372235 0.253456 131 130 123
0.0574685 0.0241814 0.240568 108 107 100
0.178289 0.0194792 0.402001 191 189 187
-0.0218466 -0.000603529 0.301149 104 131 113
0.0675894 0.0319986 0.282945 139 140 132
-0.149605 0.0346408 0.308778 135 136 124
-0.0932688 0.0261682 0.329422 112 110 108
0.096791 0.0380848 0.286658 152 153 156
0.0653703 0.078959 0.370743 158 151 133
-0.122551 0.00225355 0.296491 104 111 95
0.0737186 0.0405189 0.562668 107 85 93
-0.0886498 -0.021038 0.45185 142 145 163
0.115102 0.0392692 0.364027 83 31 41
0.113873 -0.00477512 0.39866 221 220 223
0.0642651 0.0309469 0.294757 102 102 102
-0.163909 -0.00769886 0.442229 4 8 21
0.180844 0.0299568 0.449019 226 220 213
0.178829 0.0906163 0.395399 152 158 161
0.112882 0.073465 0.334647 178 183 189
0.302793 0.0153791 0.84238 7 20 37
0.0632985 0.0431305 0.302787 105 105 102
-0.0240773 0.048927 0.309356 184 182 178
-0.124573 0.00766368 0.259419 128 128 123
0.160633 0.0823409 0.395605 142 150 157
0.0720263 0.0328264 0.282827 142 143 133
-0.17786 0.0467771 0.928742 54 84 49
0.0506159 0.0229511 0.533289 97 79 90
0.20984 0.00173596 0.463239 184 200 225
0.0141286 -0.0320094 0.469306 198 194 184
-0.0923164 -0.0259958 0.402894 16 22 39
0.157619 0.0224585 0.371267 179 173 166
-0.106241 0.0543039 0.339647 111 109 105
0.152502 0.0651495 0.355293 137 145 152
0.101702 0.0525419 0.329488 106 108 103
-0.125468 0.0215334 0.287427 116 118 115
-0.0990967 0.00238168 0.263398 82 82 77
0.137096 0.0785555 0.328349 91 85 76
0.147457 0.0390713 0.407869 213 214 206
0.0564836 0.0554918 0.339965 103 102 93
0.193959 0.0562774 0.419156 145 155 163
0.108026 0.0452662 0.28082 141 147 148
0.130476 0.0626821 0.312833 138 143 142
0.0706436 0.0251782 0.385622 12 27 11
-0.0840063 0.0169691 0.281405 79 78 81
-0.169452 0.072016 0.33741 110 112 109
-0.14031 -0.0024539 0.336605 5 29 47
-0.0946323 0.0108515 0.318013 105 99 94
-0.118872 0.00422016 0.472718 0 0 12
0.237351 0.0686273 0.568403 190 186 178
0.0287672 -0.0237425 0.509332 102 87 26
0.104932 0.036431 0.322368 119 127 132
-0.135016 0.0189219 0.276819 30 30 27
0.0477465 -0.0306623 0.623456 220 179 161
-0.0945947 -0.00385553 0.38017 82 99 101
0.106272 0.0325126 0.383458 228 230 230
-0.104153 -0.0174473 0.383247 136 138 133
-0.0901727 -0.0111522 0.256134 79 75 69
-0.146328 0.0599988 0.297067 146 146 141
0.0725178 0.0306138 0.296118 64 64 61
0.0155089 -0.0142815 0.45991 119 125 126
0.0961366 0.0437 0.293275 134 132 128
0.178121 -0.00168479 0.434115 147 157 177
0.172399 0.0621452 0.474892 167 175 182
0.493726 0.192375 1.28604 159 168 179
0.10799 0.041719 0.347092 158 164 167
0.127848 0.0723219 0.36089 166 162 156
-0.159946 0.0577849 0.321501 8 14 15
0.124514 -0.0198682 0.482484 0 12 31
0.066984 0.0690547 0.365878 152 150 146
-0.088245 0.0171129 0.30911 156 147 139
-0.0691053 -0.0222446 0.285268 78 82 95
0.10741 0.0552723 0.30147 158 158 155
-0.141422 -0.00524722 0.379844 69 79 97
0.120454 0.0406697 0.309257 112 118 119
-0.0318267 0.0245872 0.312489 71 86 72
-0.0758892 0.0338296 0.287121 125 124 117
-0.0999731 0.00429145 0.254803 132 133 125
0.112746 0.0676247 0.330211 144 143 146
-0.152606 0.01501 0.619535 56 65 78
0.0269077 -0.0142603 0.556045 155 130 111
0.10862 0.0473056 0.362259 121 122 125
0.169336 0.0524392 0.421187 154 158 160
0.0865259 0.0366298 0.304074 104 103 106
-0.174144 0.0400215 0.479438 116 116 111
0.0626402 0.0346758 0.251008 140 139 130
-0.106037 0.00203849 0.262499 113 116 123
0.0516973 0.0589301 0.376895 111 108 93
0.105424 0.0451302 0.319228 105 107 107
-0.135814 0.0322483 0.344482 97 96 89
0.115012 0.0487902 0.308525 149 159 163
0.0171501 -0.00659064 0.46175 97 108 107
-0.0961405 -0.0126379 0.293347 43 45 42
0.00137543 0.00378748 0.471995 38 30 19
-0.037124 -0.0430105 0.305687 253 255 255
-0.0776525 0.0118212 0.253397 116 114 110
0.0650819 0.0404602 0.315027 158 157 150
-0.0636857 0.0204201 0.270175 119 119 129
0.0770887 0.0367078 0.287037 138 139 131
0.149985 0.0828396 0.347246 139 138 131
0.175786 0.0291541 0.452539 242 231 224
-0.105072 0.0052516 0.270305 166 168 163
0.25322 0.0138921 0.467124 106 119 134
0.148531 0.055365 0.331001 157 164 176
-0.113986 0.0160376 0.267966 102 104 104
0.116752 0.0487971 0.344812 135 144 146
-0.08206 -0.0532929 0.429927 180 196 225
0.0522057 0.049319 0.351893 167 167 162
0.0856297 0.0531108 0.2907 149 149 146
-0.0943456 -5.08389e-05 0.295176 123 123 118
0.177435 -0.0184369 0.472399 118 157 167
0.0689362 0.0604646 0.332841 143 143 140
0.14736 0.0856172 0.33737 83 79 73
-0.0915445 0.013493 0.308239 118 111 109
-0.0728925 0.0255185 0.25042 92 88 82
0.023307 -0.00591674 0.392425 85 85 97
0.160715 0.0136624 0.406908 140 150 166
0.145443 0.0483997 0.339427 128 132 136
-0.0767123 0.011766 0.294725 123 121 122
-0.102045 0.0125693 0.279142 133 133 128
0.220803 0.0202143 0.610842 138 145 159
-0.0673261 0.0528341 0.23081 94 89 88
-0.130369 0.0313679 0.265889 127 133 106
0.079229 0.0495061 0.282168 63 62 55
0.0938537 -0.0265093 0.504793 223 182 164
0.0381342 -0.0306117 0.305732 135 107 94
0.126325 0.0572036 0.324994 144 154 160
0.0838344 0.0729303 0.652955 10 46 4
-0.0922918 -0.0122337 0.270006 93 89 83
-0.115117 0.000401345 0.296685 112 111 114
0.0954787 0.0254134 0.298235 132 140 145
0.116993 -0.0282347 0.359325 48 53 52
0.0772668 0.0268793 0.285422 163 168 167
0.207034 0.0374815 0.495709 227 218 212
-0.0770756 0.0392826 0.310408 111 111 111
0.022277 0.00909541 0.430693 74 87 106
-0.0908442 -0.0290152 0.415486 109 109 119
0.0796212 0.0532617 0.294838 120 119 110
-0.104468 -0.0156632 0.506446 89 93 108
0.103289 -0.0217523 0.258074 169 182 201
0.18126 0.0392701 0.453912 252 247 235
-0.0825832 0.00950383 0.264715 126 123 127
0.209405 -0.0100223 0.439323 83 92 105
0.175841 0.0644866 0.403956 129 133 137
-0.117806 0.0261071 0.310344 67 65 61
-0.0325337 -0.0464966 0.447417 255 255 255
0.0507311 0.0150811 0.549605 131 126 125
0.120813 0.0404888 0.328604 96 106 110
0.171844 -0.0239124 0.474041 86 93 107
0.18195 0.0460771 0.400451 112 116 118
0.0606071 0.0300293 0.268682 123 124 116
-0.100657 0.00650908 0.300932 91 89 85
0.0975993 -0.0295409 0.309362 98 79 83
-0.098109 0.043594 0.260904 109 103 94
-0.126332 0.00867383 0.278309 143 141 137
0.135497 0.0789291 0.342149 75 80 76
0.0847678 0.0413181 0.28671 119 115 105
-0.0889667 0.0280128 0.328084 67 68 71
0.169612 -0.0106234 0.466062 141 151 167
0.0353731 -0.0263895 0.538766 163 132 81
-0.0791336 -0.0435586 0.372146 64 72 88
-0.0632059 0.0037636 0.325474 91 100 100
0.0758145 0.0731091 0.41166 102 101 94
-0.199453 -0.00596632 0.435669 37 61 81
0.085266 0.0467407 0.301921 164 165 153
0.107813 0.0594146 0.296234 124 130 133
0.129769 0.0533636 0.312012 129 139 145
-0.118094 0.0162975 0.289886 90 88 84
-0.124122 0.0169856 0.266441 103 103 103
0.139436 0.0234256 0.339201 134 129 117
-0.0995131 0.0281329 0.314359 130 128 126
0.036385 0.0109734 0.353061 57 98 39
-0.0945611 0.0135113 0.339953 88 84 78
0.174288 0.0609205 0.503265 210 214 216
0.13977 0.0280125 0.363376 201 190 171
0.127131 0.0354495 0.327496 147 147 147
0.0260378 -0.00450335 0.495774 144 170 109
-0.0136886 -0.0302245 0.431341 91 121 86
-0.150147 0.025685 0.30084 54 62 71
0.12178 0.0588813 0.30218 87 88 80
-0.091694 0.0157656 0.277486 66 66 61
-0.100069 -0.00837732 0.504344 121 133 88
0.110731 0.0532813 0.350491 130 132 129
0.120946 0.0395343 0.398101 255 255 255
0.137088 0.042481 0.368537 183 153 154
-0.078828 -0.0280491 0.463411 81 98 104
0.224178 0.000972012 0.419054 159 172 191
-0.0695673 -0.00238749 0.231254 74 74 71
0.153976 0.0587485 0.352762 106 112 115
0.232775 0.0701968 0.488551 155 165 169
0.0633692 0.0290774 0.264655 138 137 126
0.0897307 0.0473074 0.314089 147 148 138
0.0245833 0.0196181 0.407629 48 83 35
0.0954124 0.0235656 0.248558 150 151 154
0.0235314 -0.0284327 0.28955 52 52 52
-0.114279 0.0308544 0.263036 112 112 109
0.174861 -0.00264658 0.368342 166 179 198
-0.0206627 0.0388521 0.353527 113 117 121
-0.0430264 0.0613451 0.207785 178 168 167
0.102631 0.0670234 0.342012 76 74 70
0.225128 0.0138622 0.485067 131 146 164
-0.0736791 0.016167 0.251073 65 60 62
0.147157 0.0356289 0.393994 216 205 186
0.075486 0.0825441 0.451646 128 131 121
0.183858 0.0545926 0.503285 229 230 220
-0.124305 0.00771971 0.388768 96 98 98
-0.128325 0.0353405 0.244013 131 133 133
-0.205182 0.00697737 0.437883 113 116 134
0.196047 0.0261766 0.421385 169 173 177
0.132007 0.0728369 0.338413 117 119 114
-0.0505894 0.0553965 0.201373 178 171 169
0.16959 0.0209323 0.371358 163 163 163
-0.118784 0.00993422 0.369569 109 109 104
-0.109186 0.0229881 0.303783 89 87 85
0.0586684 0.0370505 0.303434 139 135 127
-0.133765 0.0309755 0.303781 89 89 86
-0.119836 0.00442722 0.256489 148 147 138
0.0699948 0.0369114 0.271958 131 130 123
0.0556539 0.0384974 0.294553 113 109 103
0.096305 0.0237062 0.286023 97 105 110
-0.102549 0.0454557 0.26219 107 102 99
-0.0934715 0.0193369 0.279067 86 84 80
-0.0910054 0.00327404 0.317819 117 112 111
-0.0239908 -0.0111978 0.230347 63 78 83
-0.144038 0.0548341 0.280866 92 94 89
0.133977 0.0426986 0.33032 81 86 85
-0.104356 -0.00869927 0.274692 95 109 88
-0.0196756 0.00492562 0.328707 65 103 47
-0.0778126 0.0635737 0.216742 182 177 176
-0.0805662 0.0527649 0.208542 178 173 172
0.102874 0.0596898 0.315345 134 133 126
-0.12499 0.0191855 0.279253 74 75 80
0.0996625 0.0334864 0.27708 122 126 130
-0.0276765 0.0377612 0.35783 74 111 49
-0.101344 -0.0334495 0.488573 37 45 63
-0.0678793 0.0458219 0.198706 191 186 183
0.0629875 0.0463344 0.351542 163 164 167
-0.0355926 0.0560904 0.315415 38 36 37
-0.102161 0.00121887 0.27812 103 103 103
0.205701 0.0194427 0.386287 147 162 176
0.216099 0.00279453 0.45293 150 160 176
0.135138 0.0224891 0.338953 151 145 136
0.0084416 -0.0288156 0.469078 198 200 197
0.186876 0.0322776 0.438374 212 208 202
0.216853 -0.0161191 0.457514 122 122 134
-0.0223024 0.0236317 0.329299 68 105 56
-0.0123749 0.00648238 0.343317 29 71 20
-0.112113 0.0624336 0.285667 54 50 44
0.0323922 0.0220906 0.380275 55 91 38
0.137212 0.0664548 0.317983 67 71 75
-0.0751209 0.0250609 0.264668 114 110 102
-0.0958078 0.000487546 0.288329 49 43 38
-0.110267 0.00285695 0.331154 89 83 78
0.247609 0.013454 0.486483 163 173 193
0.127524 -0.0278946 0.451597 74 92 116
0.0726887 0.0515729 0.299402 133 128 116
0.106082 0.100281 0.31215 162 155 153
0.123921 0.0690183 0.33323 154 154 151
-0.128607 0.0232088 0.305517 117 117 114
0.172999 0.0368078 0.465971 239 239 234
0.142654 -0.0103739 0.453912 250 247 251
0.290513 0.0719204 0.580348 93 101 110
-0.0817491 0.0215311 0.282409 74 69 68
-0.0456567 0.0625987 0.219601 198 188 189
0.131462 0.0535678 0.305553 124 133 144
-0.0741298 0.050813 0.197365 170 165 162
-0.173704 0.0698191 0.343339 127 132 128
-0.0197966 -0.0155423 0.221986 66 84 81
0.18245 0.0508571 0.482654 235 228 212
-0.126533 0.0110846 0.261364 121 121 118
-0.103592 -0.00708591 0.231585 83 91 79
0.0182843 -0.00210545 0.281906 55 92 32
-0.0714015 0.0522904 0.203035 174 169 168
-0.0854715 0.0170811 0.314455 85 80 77
-0.0562987 0.0467136 0.191745 165 163 164
0.0220733 -0.0161731 0.434869 78 101 66
-0.124263 0.0145398 0.2685 108 107 112
0.0470163 0.0455982 0.318882 167 162 148
0.216241 0.0179791 0.400933 138 151 168
-0.0572659 -0.0214167 0.429403 62 87 69
0.0172417 0.0228693 0.322021 62 92 45
0.212228 0.0395697 0.473064 166 164 162
0.0663832 0.0759353 0.284903 164 163 168
-0.163097 0.00534827 0.38009 27 52 67
-0.00942848 0.0193033 0.306869 0 15 0
-0.0259515 0.064363 0.207197 185 179 174
-0.0957076 0.0207849 0.357141 101 99 100
-0.0314404 -0.0129562 0.780287 46 73 45
-0.129549 0.0588153 0.281357 146 145 138
-0.0933608 0.0455331 0.246477 93 88 85
0.137234 0.0473081 0.381203 173 107 122
0.103216 0.0560384 0.316719 130 129 122
-0.0887777 0.00960542 0.28659 38 35 39
0.217728 -0.00201942 0.398481 156 169 186
0.141313 0.09916 0.395783 143 151 158
0.0862613 0.0606454 0.37043 121 122 114
0.223112 -0.0183777 0.509098 86 74 90
0.116826 0.103768 0.241246 168 161 159
-0.0645565 0.0544978 0.224205 185 178 178
0.0801147 0.0360941 0.295378 86 86 83
0.284708 -0.0108289 0.502809 85 127 145
0.149216 0.0750052 0.485675 142 150 157
-0.116402 0.0244815 0.350728 118 118 118
0.131873 0.113692 1.55167 83 81 77
-0.0760072 0.055365 0.200199 170 165 164
-0.103744 0.00931994 0.348596 77 74 78
0.0605521 -0.0105607 0.433372 46 56 50
-0.156343 0.000857728 0.354315 38 60 53
-0.111426 0.0158701 0.316864 51 49 47
0.133128 0.0734893 0.431154 133 137 139
-0.0610939 0.0574537 0.204418 118 116 114
0.0544104 0.0658188 0.215545 183 179 173
0.00764685 0.0688115 0.207447 143 141 137
0.159329 -0.024019 0.399184 73 107 135
-0.0521511 0.0294919 0.159319 161 156 155
-0.0595556 0.0529361 0.208887 188 184 178
0.0929483 -0.0119241 0.269187 152 165 182
0.256585 -0.0160119 0.49975 85 93 125
-0.117999 0.0234426 0.299796 63 61 62
0.189427 0.0193569 0.392625 139 149 167
-0.0731956 0.0276782 0.282166 89 88 79
0.117284 -0.0275841 0.458187 85 126 151
-0.0651819 0.0670171 0.241034 167 162 159
-0.01037 0.0827892 0.247815 189 180 176
0.0308659 0.00891502 0.322464 69 107 53
0.130753 0.066484 0.404715 107 113 114
-0.0633036 0.0104195 0.228107 77 69 58
0.174313 0.0304614 0.422772 227 223 215
0.0264675 0.00885468 0.297636 83 121 56
0.0804082 0.0508404 0.299127 110 109 100
-0.0106571 0.00984609 0.336595 70 106 60
-0.0975324 -0.0124405 0.286734 101 106 100
-0.0644582 0.0849119 0.244786 180 173 171
-0.0304746 0.00372837 0.28432 51 76 45
0.109656 0.0359881 0.310612 121 132 133
0.0941247 0.0482273 0.301873 152 151 140
0.11941 -0.0114973 0.291904 140 154 175
0.275237 0.0192719 0.487857 146 159 178
-0.077452 0.0532753 0.196551 184 179 178
0.214726 0.0684438 0.609579 181 185 189
-0.139393 -0.0496816 0.453826 127 140 155
-0.106628 -0.0325581 0.48265 100 106 123
-0.0824977 0.0901976 0.264422 175 170 169
0.000526212 0.0538786 0.210116 164 157 157
-0.0198354 0.00314081 0.296516 11 51 1
0.187412 0.0123292 0.49642 146 160 181
0.248906 0.0218679 0.620564 163 176 195
0.0021752 0.0621052 0.241783 168 163 165
0.070657 0.0171251 0.292905 176 82 109
0.0859886 0.0396975 0.302508 77 81 83
-0.00636244 -0.0242673 0.594492 101 129 94
0.051383 0.0691034 0.242621 189 183 178
-0.0797317 -0.00286816 0.3062 108 116 123
0.0358709 0.0770519 0.227723 151 144 142
0.197017 -0.0227692 0.440297 44 72 93
0.0284865 0.0167817 0.393637 30 59 19
-0.0658809 0.0499851 0.205021 157 155 153
0.36912 0.0653172 0.972698 167 182 198
0.072114 0.0742731 0.395472 101 97 89
0.029341 0.0659551 0.287709 162 155 153
-0.0856632 0.0104233 0.300626 87 77 65
0.107019 -0.0162676 0.374515 246 248 245
0.16488 0.0863755 0.608038 255 255 255
-0.116786 0.00438699 0.273048 83 85 82
-0.0246299 0.060653 0.234085 184 177 175
1.13204 0.443839 2.9897 160 172 194
0.118087 0.0735198 0.305648 193 189 181
-0.170248 -0.0473278 0.456175 79 89 97
-0.0663393 0.0525812 0.222409 185 178 176
0.0706993 0.0722776 0.334335 155 147 134
0.0991025 0.0421066 0.346094 170 174 176
-0.0308903 0.056894 0.203788 175 168 166
-0.104261 -0.00218421 0.279784 65 64 67
0.11487 0.0715314 0.288878 196 191 190
0.0193347 0.0644622 0.203531 176 171 168
0.162533 0.0294768 0.424393 243 238 226
-0.0850074 0.019594 0.260753 82 81 84
-0.0921865 -0.00366402 0.308529 120 120 128
-0.0913803 -0.00678169 0.263293 86 82 76
-0.0534027 0.0548161 0.203312 172 165 163
-0.124799 0.0122735 0.272117 76 75 78
-0.131321 0.0642742 0.321383 108 106 102
0.151515 0.0721318 0.337539 163 168 167
0.181202 0.0456078 0.363551 163 167 169
-0.12527 0.0438278 0.261292 94 95 85
0.0260616 0.0176564 0.320711 33 71 17
-0.0281237 0.0640078 0.212364 183 178 175
0.226391 0.0651355 0.450889 145 160 167
-0.0868205 -0.0088547 0.29765 81 84 91
-0.0163109 0.068716 0.211343 157 152 149
-0.0904756 0.0227946 0.355719 98 96 97
-0.0421263 0.0623504 0.214899 181 171 172
-0.088942 0.0351226 0.300654 120 116 106
-0.0393779 0.0654621 0.363893 80 85 93
-0.0372989 0.0622919 0.219379 189 182 180
0.120651 0.0205728 0.287007 106 111 119
0.218288 0.030408 0.499652 154 165 178
-0.115665 0.0347125 0.261946 59 59 56
0.085288 0.0535608 0.301462 110 109 98
0.123405 0.0399187 0.30715 91 100 100
0.105199 -0.0343942 0.326109 49 73 93
0.0648772 0.0360832 0.313131 136 137 140
-0.153437 0.0076767 0.397154 55 78 75
-0.0221039 0.0685232 0.228584 168 161 159
0.0609587 0.0746844 0.228861 181 176 175
0.128911 0.0666036 0.310456 124 123 112
0.133361 0.00778423 0.304368 132 127 126
0.201353 0.0465645 0.373811 134 146 154
0.0779061 0.0360233 0.255018 131 126 125
-0.116596 0.067724 0.230764 162 160 158
0.174165 0.0731252 0.343656 162 164 164
-0.129537 0.0550642 0.356954 50 49 52
0.214258 0.0433964 0.381704 134 145 156
-0.0700586 0.0282933 0.167554 179 174 173
0.0198366 0.0141807 0.350444 74 108 63
-0.0861871 -0.0017885 0.266989 90 88 84
-0.108351 -0.0467625 0.535661 40 50 68
-0.018488 0.03013 0.349476 34 77 17
-0.0612947 0.0537017 0.196851 177 172 171
-0.105906 -0.0193755 0.2539 61 88 102
-0.0339085 0.0627106 0.248945 187 178 174
0.178911 0.0296761 0.332094 150 160 176
0.0402562 -0.0189897 0.393129 69 69 66
-0.0389576 0.0262268 0.157414 178 169 165
-0.237855 0.028148 0.512975 75 87 80
-0.0774368 0.051389 0.199865 188 183 180
-0.00193394 0.0275614 0.358818 80 112 65
-0.0993067 0.0190881 0.21411 112 112 107
-0.0936982 0.00218495 0.198819 93 94 86
-0.00413827 0.00995624 0.363282 70 115 61
-0.0553917 0.0499215 0.186732 179 177 175
0.165163 -0.00420324 0.383167 139 154 172
-0.0222036 0.00785823 0.411904 0 22 0
-0.0154784 0.0710236 0.245026 187 180 180
-0.0958086 0.0362522 0.313595 83 85 80
0.145163 0.0201256 0.34558 185 179 172
0.0573559 0.0417111 0.292758 121 121 116
0.0127155 0.00896842 0.4112 40 63 46
0.175944 0.0535431 0.392279 97 102 112
-0.0769072 0.0251177 0.259682 111 107 101
-0.074525 0.0556405 0.23449 179 173 168
-0.0551004 0.036872 0.179427 176 171 170
-0.0388606 0.0666788 0.212219 165 158 156
0.158963 -0.0132543 0.393531 166 178 200
0.165533 0.0212716 0.628711 231 227 219
-0.0653457 0.0502847 0.200412 201 199 197
-0.0330083 0.0499098 0.210252 191 181 180
-0.127232 -0.0199793 0.549989 118 126 142
0.0986823 0.0462149 0.361004 171 177 180
-0.0197106 0.0337241 0.387832 65 96 56
-0.0941425 -0.00741928 0.227797 57 59 59
0.156274 0.081956 0.372855 106 116 124
-0.0245535 0.0632778 0.209676 181 176 173
0.0315049 0.0171356 0.377877 50 94 29
0.029981 0.0498593 0.183519 169 162 160
-0.0709083 0.0581875 0.208928 157 152 151
0.221396 0.00165171 0.475472 143 157 180
0.13993 -0.0263072 0.461097 110 113 122
-0.0372511 0.0616872 0.211417 179 172 170
-0.150027 0.0566292 0.308693 112 111 102
0.319361 0.0215419 0.606095 149 157 175
-0.00846814 0.0138495 0.386227 32 68 26
0.0685111 0.0324354 0.296382 121 121 116
-0.0196582 0.0559801 0.199707 153 146 144
-0.0939367 0.00108874 0.327114 78 78 86
0.0223959 0.0707248 0.224369 183 176 176
-0.130739 0.00643873 0.413674 76 79 90
0.248244 0.0244317 0.477754 132 144 166
-0.00176608 -0.0149392 0.275368 44 85 39
-0.0343006 0.0773684 0.231437 160 153 151
-0.104707 0.0348866 0.249046 110 106 100
-0.107949 0.0313537 0.238498 100 100 100
0.0932274 0.0680616 0.306601 178 169 161
-0.069644 -0.0200063 0.302991 54 65 66
0.000812338 0.0116572 0.389985 4 44 0
-0.0842638 0.081844 0.27066 183 176 174
0.232725 0.0625481 0.460433 140 154 166
-0.145931 -0.00562294 0.457934 185 190 198
-0.0169184 0.0488836 0.198395 183 176 176
0.274723 -0.00357398 0.654764 30 64 90
0.10041 0.0447321 0.306899 106 104 100
0.0838868 0.0403798 0.338893 169 173 175
-0.0459108 -0.0251394 0.441837 70 96 83
-0.0681687 0.0636335 0.235433 171 166 165
-0.108103 0.0438564 0.246528 175 173 169
0.0327961 0.0611072 0.274194 183 176 176
-0.129102 0.0170827 0.292312 100 100 97
-0.0180059 -0.0408562 0.402745 74 99 81
-0.0992859 0.000286412 0.281594 76 74 70
-0.0841736 0.0141695 0.246524 79 81 81
-0.0973998 0.0606125 0.218948 178 173 172
-0.10712 0.0662407 0.23561 182 177 176
-0.0281239 0.0301801 0.351774 79 109 60
0.00350133 0.0203249 0.315027 37 69 8
0.203816 0.081626 0.736179 255 255 255
0.147775 -0.00431335 0.37563 160 173 192
0.0243105 0.0693508 0.211144 159 154 153
-0.0445382 -0.0271785 0.361289 78 103 76
-0.108747 0.00242178 0.24807 68 66 64
-0.101289 0.0409285 0.260847 88 86 84
-0.00895098 0.0643032 0.229517 181 171 170
-0.0475691 -0.0169868 0.533858 59 90 66
0.166363 0.00880483 0.356458 160 168 184
-0.015589 0.0157681 0.471639 0 38 0
-0.0150721 0.0768271 0.267137 182 175 175
-0.0273366 0.055092 0.225656 176 169 169
-0.080992 0.045793 0.19009 169 164 161
-0.0816886 0.0200772 0.196025 100 100 95
0.0124647 0.070666 0.205758 171 166 165
0.057234 0.0457372 0.349941 151 158 153
0.074334 0.0609113 0.328769 145 136 128
-0.0737828 0.0711595 0.264066 183 176 176
-0.0996411 0.027213 0.197862 136 131 130
-0.154285 0.0347136 0.311555 101 100 105
0.243786 0.000380785 0.449603 123 136 151
0.149126 0.00257617 0.290782 145 159 171
0.0413553 0.0603638 0.200296 87 85 81
0.0435823 0.0655515 0.213189 165 158 156
0.0198236 0.0857574 0.231505 128 121 119
-0.0727667 0.0617075 0.254988 156 150 145
0.0863151 -0.0124326 0.494853 118 136 133
0.135215 0.0541699 0.462392 228 230 230
-0.0926201 -0.0120613 0.399101 80 88 97
-0.0142423 0.0635481 0.216977 186 176 177
0.00880289 0.0678161 0.218512 183 178 177
0.130343 0.0780609 0.341919 59 69 77
-0.0959358 0.000145841 0.268361 95 93 91
-0.0400566 0.0175545 0.335623 64 89 73
-0.0780379 0.0468605 0.187116 181 176 175
0.00402957 0.0118802 0.367204 52 84 51
-0.0851923 0.0551321 0.205574 157 152 151
-0.128624 -0.0153946 0.367808 133 129 140
0.072921 0.0834171 0.244093 164 159 156
-0.109721 0.0240219 0.341583 50 50 50
0.0419167 0.0768156 0.224352 144 142 138
0.0267536 -0.00310188 0.259906 23 52 10
0.190669 0.027273 0.445758 197 195 191
-0.0512713 0.0742674 0.225291 184 174 173
0.0687403 -0.0383396 0.443248 224 182 160
-0.0414015 0.0655307 0.209698 177 167 166
-0.0235864 -0.00187825 0.271418 96 124 101
-0.00724031 0.0631354 0.237265 176 169 167
-0.0394969 0.0494247 0.213536 183 176 174
0.172269 0.0145188 0.459327 155 169 190
-0.0850532 0.0552098 0.234353 184 179 176
0.0375115 0.0876733 0.250568 167 162 161
-0.135435 0.0554383 0.28123 86 85 74
-0.00930245 0.00400769 0.361352 51 96 28
0.0515838 -0.00800278 0.436847 84 70 75
-0.13363 0.101789 0.290127 167 162 161
0.183143 0.0236442 0.383039 93 101 110
-0.119936 0.0369885 0.252096 67 70 58
-0.0207084 -0.0298185 0.417781 43 66 51
0.0625657 0.0738534 0.25614 183 178 175
-0.0507782 0.039579 0.39379 27 51 9
-0.0575778 0.0614888 0.209837 175 168 168
0.0521695 0.0897143 0.28929 183 181 179
-0.0216894 -0.00815426 0.316345 63 90 51
-0.0144935 0.00928897 0.331821 2 41 0
-0.0198544 0.0139618 0.326014 0 23 0
-0.0527362 0.0137225 0.331026 86 97 96
-0.105554 0.00946363 0.304032 105 103 101
0.149692 0.0199684 0.417496 149 162 179
0.0835126 0.0422794 0.530439 255 255 250
0.0393076 0.0446687 0.268882 173 163 151
0.0215605 0.0293419 0.481474 50 78 43
-0.0145625 0.064515 0.227561 186 176 175
0.125865 0.0715376 0.303441 137 131 124
-0.0538609 0.0615709 0.227172 174 164 163
-0.0703724 0.0435516 0.199662 166 164 160
0.0307935 0.0300106 0.322628 67 75 80
-0.0863593 0.0112105 0.334567 91 90 93
0.0489048 0.068846 0.225602 183 176 174
0.231491 0.0150408 0.413942 125 138 155
0.260004 0.0687492 0.449885 136 148 156
0.0595473 0.0841684 0.220648 171 169 165
0.0266587 0.0642778 0.207894 164 157 155
-0.0829713 0.0552471 0.220737 178 173 172
0.129761 0.0215879 0.302305 87 90 99
-0.00389247 0.0755633 0.228782 156 149 147
-0.13175 -0.0390596 0.434928 218 216 217
-0.109076 0.0389111 0.245968 111 110 103
-0.00624246 0.0218946 0.329875 23 63 13
0.0410284 0.0813463 0.242601 170 163 161
-0.0902279 0.0216326 0.259117 60 60 60
0.0926173 0.09697 0.265824 161 159 157
0.352782 0.0211355 0.614923 149 162 179
-0.0898237 0.047068 0.190565 184 179 176
0.012619 0.0692181 0.212216 162 157 156
0.204499 -0.0112877 0.401754 151 161 181
0.227548 -0.0193395 0.475498 88 105 111
0.0566463 0.059133 0.307768 204 189 169
0.0331974 0.0801367 0.223936 171 166 165
0.127194 0.0978311 0.226572 164 159 156
-0.0721442 0.00869872 0.304722 74 78 82
-0.0547635 0.0524416 0.206164 177 170 168
0.236683 -0.00489226 0.447842 168 181 198
0.222446 0.0271172 0.438069 147 160 175
-0.109576 -0.0295775 0.617873 40 49 74
0.271535 0.0265404 0.545839 167 179 201
-0.0215579 0.117756 0.360346 137 136 141
0.124296 0.1016 0.382916 185 176 170
0.206539 0.0710174 0.805975 137 102 89
-0.0380983 0.0817991 0.405069 144 149 155
0.0423114 -0.010159 0.405474 61 44 50
-0.0907513 0.00233032 0.212671 95 95 95
0.102742 0.0830339 0.266441 175 170 167
0.140253 0.00329458 0.2754 129 145 156
-0.0515461 0.0659685 0.226427 162 152 153
0.0745704 0.0395507 0.292737 133 129 121
0.130165 0.100316 0.248703 171 166 163
0.229126 0.00809954 0.467095 143 153 171
0.0594879 0.0756735 0.244154 175 170 169
-0.00466388 0.0394162 0.291083 147 144 148
-0.0596501 0.0545717 0.248177 139 137 133
-0.0953905 0.0361171 0.184586 174 172 170
0.156602 0.048461 0.353038 77 81 85
-0.0327372 0.0749068 0.23889 186 179 179
0.0526893 0.0883221 0.23526 176 172 166
-0.0190855 0.0624971 0.246757 163 156 156
0.0364008 0.0813502 0.256821 169 163 158
-0.0369221 0.0270551 0.148127 196 190 185
-0.00841969 0.0690593 0.230073 179 172 170
0.00712491 0.0742071 0.268417 112 112 122
-0.040778 0.0624998 0.209198 176 169 169
-0.185294 0.0778201 0.381982 10 14 0
-0.0943159 0.00745411 0.318873 88 77 72
0.242509 0.0699498 0.465402 148 158 174
0.173466 0.0678086 1.71456 221 183 164
0.0269597 0.0182063 0.338946 72 101 61
0.0406418 0.00873191 0.530914 66 58 64
-0.0204427 0.0658558 0.205553 179 172 170
-0.144434 0.0122497 0.339688 21 37 4
-0.223237 -0.0517683 0.514388 58 73 91
0.0400224 -0.00631057 0.427554 61 48 56
0.115435 0.0652282 0.339531 138 136 132
0.123575 0.0567336 0.431053 174 81 105
-0.055822 0.115061 0.319513 175 168 166
0.0256428 0.0733403 0.227046 175 168 166
0.100979 0.0517822 0.201601 164 162 160
-0.119525 0.00996892 0.251756 53 53 50
-0.0447822 0.0523172 0.220509 167 160 158
-0.0294043 0.0558023 0.234492 160 153 151
0.0204017 0.0767037 0.232998 174 167 165
-0.085396 0.0454087 0.252798 58 58 53
-0.102577 0.0481721 0.205326 168 166 164
0.0288158 0.0724578 0.262512 120 120 128
0.102816 0.0522827 0.207536 173 168 165
-0.00685331 0.0611286 0.239458 182 175 178
-0.100482 0.055929 0.211437 171 166 165
0.142422 -0.0171569 0.346114 175 184 207
-0.0450704 0.0563827 0.202728 163 153 152
0.132592 0.0477849 0.380354 149 151 148
-0.106093 -0.00303327 0.378524 59 64 74
-0.00549026 0.0749469 0.222132 164 159 156
-0.0932116 -0.0159298 0.442321 74 79 89
0.0671578 0.0441431 0.3498 145 148 155
-0.120534 -0.047726 0.345571 38 42 55
0.0763701 0.0723455 0.329176 132 131 120
0.236333 0.155845 0.395081 149 144 141
-0.0887212 4.65211e-05 0.286605 60 55 57
-0.0367195 0.0467643 0.226424 161 160 163
0.10741 0.108359 0.306997 154 149 148
-0.0528997 0.0581175 0.226627 189 183 178
0.106694 0.0496949 0.408577 151 144 147
-0.152357 0.016395 0.68409 35 43 59
0.00812178 0.0637506 0.20649 164 162 158
0.0059147 0.0668804 0.234551 175 170 167
0.0955097 0.0689705 0.22545 173 173 170
