ply
format ascii 1.0
element vertex 835
property float x
property float y
property float z
property uchar red
property uchar green
property uchar blue
end_header
-0.676088 -0.388875 1.76109 74 96 125
-0.698521 -0.367735 1.82094 73 103 132
-0.7731 -0.472539 2.13272 194 195 203
-0.724004 -0.289898 1.78797 48 62 78
-0.476578 -0.616424 2.26691 125 133 144
-0.487307 -0.668129 2.29842 190 201 213
-0.669734 -0.472791 2.1194 180 185 188
0.532258 -0.504699 2.24707 166 172 182
0.545883 -0.525099 2.3492 163 170 180
-0.159962 0.110306 1.12174 60 59 60
-0.415763 -0.577106 2.36738 109 135 144
-0.325465 -0.657716 2.70691 193 220 228
-0.500363 -0.554079 2.27574 133 131 147
-0.869509 -0.223926 1.69059 123 143 160
-0.146475 0.085062 1.14764 61 60 62
-0.638433 -0.314407 1.94681 152 157 165
0.639303 -0.348382 2.31903 190 203 225
-0.303289 -0.117374 0.912752 86 91 105
-0.827745 -0.22634 1.71469 126 142 163
0.175373 -0.085041 1.68211 79 82 92
0.545883 -0.525099 2.3492 163 170 180
0.905264 -0.584088 2.30588 141 148 154
-0.869393 -0.223892 1.69037 123 143 160
0.692686 -0.54045 2.26444 110 120 135
-0.084589 -0.608965 2.28732 184 186 192
-0.827628 -0.226306 1.71447 126 142 163
-0.879451 -0.278379 1.70331 1 7 17
-0.33853 -0.685289 2.74708 126 148 158
0.226795 -0.545273 2.32079 203 201 198
-0.716612 -0.605531 2.05358 155 158 167
-0.557108 -0.611386 2.22159 136 153 181
-0.491409 -0.653459 2.25079 179 206 224
0.182439 -0.115091 1.31346 132 139 134
0.482021 -0.292123 2.27135 198 194 195
0.974151 -0.525586 2.19529 137 147 163
-0.867918 -0.313984 2.11176 121 128 138
1.01385 -0.54164 2.26029 139 148 165
0.493616 -0.350268 2.2997 187 182 181
-0.070644 -0.653358 2.39465 181 202 222
-0.695976 -0.222807 1.67769 61 68 86
-0.190232 -0.022789 1.10716 60 66 72
-0.478083 -0.626232 2.55761 190 211 217
-0.027024 -0.627321 2.36332 191 184 179
-0.053076 -0.669171 2.45694 234 254 255
-0.637454 -0.440991 1.71457 148 157 166
0.677316 -0.347459 2.31699 181 192 206
0.612608 -0.429787 2.19848 195 220 244
1.06009 -0.57705 2.28343 142 141 144
-0.710782 -0.448651 2.01912 123 127 134
-0.325424 -0.657633 2.70657 193 220 228
-0.315376 0.046874 0.893165 44 40 36
-0.088053 -0.646267 2.36833 181 189 197
-0.305431 -0.12651 0.92942 109 116 131
-0.8803 -0.278638 1.70502 1 8 19
-0.499295 -0.593144 2.19142 80 90 120
0.841279 -0.541482 2.25639 143 157 171
-0.869424 -0.223901 1.69043 123 143 160
0.066091 -0.671578 2.25813 135 122 118
0.606597 -0.515509 2.20548 154 153 158
-0.554611 -0.626439 2.56929 139 162 169
1.01775 -0.577735 2.28533 80 93 107
-0.564261 -0.519705 1.84039 200 199 201
-0.736841 -0.181498 1.77861 75 86 93
0.503114 -0.542791 2.452 119 115 118
-0.730396 -0.271937 1.85586 147 150 157
-0.340725 -0.660664 2.69462 112 135 146
-0.864829 -0.216946 2.10562 177 185 195
0.630805 -0.400229 2.21972 107 154 205
-0.454487 0.115119 0.935844 59 61 58
0.974087 -0.525557 2.19515 137 147 163
-0.728903 -0.237068 1.85293 196 199 206
-0.649023 -0.355939 2.06308 165 169 170
1.0179 -0.577788 2.28561 80 92 107
0.666196 -0.444436 2.27772 174 198 222
-0.554726 -0.506655 1.89137 60 67 83
0.16566 0.027927 1.48709 107 104 97
-0.365889 -0.61614 2.47648 112 138 148
-0.658954 -0.488782 1.89332 156 159 167
0.565886 -0.514384 2.25643 150 153 160
0.564153 -0.566876 2.22929 162 159 168
-0.125609 -0.333909 1.20239 186 206 211
-0.338516 -0.685258 2.74697 126 148 158
0.565881 -0.51438 2.25641 150 153 160
-0.780762 -0.168285 1.72939 77 101 110
-0.550046 -0.52065 1.87025 89 95 111
1.05096 -0.543943 2.27431 117 121 129
-0.72889 -0.237063 1.8529 196 199 206
-0.069312 -0.438126 2.39556 146 143 130
-0.75483 -0.604049 2.05725 171 171 177
-0.55614 -0.65128 2.3216 181 200 227
0.680461 -0.564002 2.22719 2 19 37
0.264216 -0.472407 2.21746 175 148 135
-0.476541 -0.616374 2.26672 125 133 144
-0.508839 -0.465533 2.01793 169 176 191
0.176576 -0.082525 1.64221 111 114 123
-0.47811 -0.626271 2.55775 190 211 217
-0.066141 -0.658289 2.22961 173 181 190
-0.491412 -0.653464 2.2508 179 206 224
-0.38721 -0.021466 0.887305 104 104 105
-0.827619 -0.226305 1.71446 126 142 163
0.862612 -0.528422 2.20363 141 147 156
0.78373 -0.544731 2.27247 114 120 133
0.235961 -0.539822 2.27193 100 74 65
-0.53788 -0.482532 1.84412 39 47 65
-0.654178 -0.310589 2.09654 140 146 151
-0.710782 -0.448651 2.01912 123 127 134
0.56414 -0.566863 2.22924 162 159 168
-0.728888 -0.237063 1.85289 196 200 207
0.309652 -0.509296 2.32313 159 148 140
0.078889 -0.49863 2.38895 107 85 84
-0.374198 -0.044101 0.882461 141 141 144
-0.336725 -0.028887 0.888826 37 36 32
-0.499987 -0.521825 2.15548 126 135 157
-0.296523 -0.022127 0.922983 53 53 56
-0.538435 -0.531209 1.87042 110 117 136
0.057652 -0.605681 2.32934 132 102 89
0.226861 -0.545425 2.32157 203 201 197
-0.242051 0.185074 0.915149 186 179 178
-0.296509 -0.02213 0.922968 53 53 56
0.691117 -0.165614 2.54394 170 115 127
-0.61632 -0.34663 1.97836 124 129 128
-0.081717 -0.657966 2.22641 187 191 194
0.941633 -0.572657 2.26017 113 114 125
0.124071 -0.51068 2.35804 97 76 73
-0.257766 0.045789 0.936746 47 45 41
-0.33843 -0.685058 2.74629 125 147 157
0.665716 -0.376734 2.3464 77 124 177
-0.531037 -0.693247 2.33097 240 246 252
-0.520737 -0.537733 2.06677 66 77 98
-0.751414 -0.141941 1.49093 33 37 39
0.91136 -0.525339 2.19306 94 95 107
-0.269128 -0.001514 0.919405 94 91 92
-0.459026 0.033639 0.927429 30 30 25
-0.239093 0.028404 0.941963 52 51 51
-0.387216 -0.021467 0.887317 104 104 105
-0.499939 -0.521782 2.15528 126 135 157
-0.109352 -0.565358 2.27329 178 159 148
-0.450738 0.129783 0.960025 66 67 57
-0.633979 -0.587804 1.97816 173 175 183
-0.351709 0.144892 0.972462 34 29 26
0.48178 -0.592025 2.33798 116 120 131
-0.594159 -0.306683 2.00528 64 72 85
-0.325455 -0.657694 2.70682 193 220 228
-0.637992 -0.372846 2.08633 107 115 122
0.26091 -0.577892 2.29115 171 142 126
-0.711123 -0.473212 1.8488 98 117 145
-0.069379 -0.438757 2.39902 146 143 130
-0.528553 -0.477915 2.10969 142 149 163
0.613361 -0.414568 2.21023 143 173 216
-0.549449 -0.293278 1.92304 123 133 151
-0.649009 -0.355926 2.06305 165 169 170
0.251167 -0.488775 2.29989 138 140 137
0.486582 0.10042 1.53517 114 118 122
-0.721368 -0.296939 1.823 126 131 141
0.191525 0.046171 1.43842 132 123 119
0.24985 -0.4954 2.38137 118 104 96
0.513825 -0.070417 1.47839 145 146 141
-0.556182 -0.65133 2.32179 181 200 227
-0.285057 -0.030146 0.869551 75 73 76
-0.602082 -0.318198 1.9332 171 175 181
0.653754 -0.361839 2.29984 112 159 209
0.327836 -0.358442 2.56527 188 184 179
0.283593 -0.60112 2.3513 98 70 56
-0.028033 -0.594579 2.44088 196 187 181
-0.578041 -0.6446 2.30413 126 145 171
-0.396665 -0.601581 2.48017 130 158 170
-0.242258 0.012244 0.922586 87 87 91
0.653789 -0.361864 2.29998 112 159 209
-0.382409 -0.007186 0.863474 66 66 67
-0.379673 -0.032339 0.88798 127 128 133
0.209482 -0.60051 2.50864 136 107 91
0.074643 -0.550142 2.26718 210 171 160
-0.166758 -0.707876 2.39024 154 167 182
-0.355676 0.099477 0.964172 36 35 30
0.100445 -0.584196 2.35476 183 147 136
1.01779 -0.577744 2.28539 80 93 107
0.207657 -0.045382 1.72957 104 107 115
0.283473 -0.336594 2.43884 177 171 165
-0.104687 -0.463812 2.46951 81 69 45
-0.225365 0.00884 0.924496 66 66 71
0.656108 -0.384357 2.31022 79 125 178
-0.314337 -0.123993 0.933027 129 134 148
0.312168 -0.546461 2.26962 153 142 143
-0.508834 -0.465529 2.01791 169 176 191
0.249899 -0.495528 2.38197 118 104 96
0.941642 -0.572658 2.26018 113 113 125
-0.452771 0.066843 0.922006 91 93 86
-0.367175 -0.034527 0.875271 73 76 79
1.04143 -0.580759 2.31961 127 139 156
-0.136472 -0.302824 1.14796 171 194 200
-0.411164 -0.042959 0.891817 69 81 65
0.565886 -0.514384 2.25643 150 153 160
-0.868888 -0.258524 1.69588 31 50 64
0.680415 -0.523597 2.21831 85 95 110
-0.375548 -0.031986 0.853609 70 71 71
0.905163 -0.584022 2.30562 141 148 154
-0.144371 -0.035803 1.38752 85 104 81
0.137447 -0.532562 2.32885 136 104 88
0.211542 -0.146173 1.47061 38 59 38
-0.425499 -0.000603 0.852556 86 86 82
0.27481 -0.344113 2.47483 192 186 180
-0.314146 0.020019 0.903107 56 56 56
0.715673 -0.557758 2.21288 160 147 152
-0.258431 0.047362 0.915583 94 90 85
0.191518 -0.541635 2.38272 161 175 170
0.441148 0.088696 1.49484 97 97 102
-0.269414 -0.006886 0.918082 158 157 159
0.307374 -0.506112 2.2152 164 158 161
-0.144371 -0.035804 1.38753 85 104 81
-0.346636 -0.007997 0.887705 145 142 138
-0.150018 0.107115 1.07984 119 118 118
-0.444637 -0.023373 0.912988 118 128 124
-0.423974 -0.001451 0.850586 149 149 145
0.204281 -0.468432 2.30492 67 48 46
0.245719 -0.336067 2.43803 51 47 51
-0.296509 -0.02213 0.922969 53 53 56
0.660644 -0.514652 2.18497 109 116 126
-0.316288 0.005745 0.907946 90 89 84
0.307378 -0.506122 2.21524 164 158 161
-0.131342 -0.634313 2.27706 195 195 192
-0.258043 0.014235 0.921914 52 51 44
-0.558508 -0.423908 1.94867 105 114 129
-0.275584 -0.004348 0.925687 115 111 111
0.198417 -0.536521 2.22043 106 77 64
0.305069 -0.517834 2.21718 191 183 184
-0.322315 -0.079158 0.882025 106 102 96
-0.399941 0.104271 0.973975 80 79 74
-0.185976 -0.017594 1.09501 82 87 95
-0.463305 0.10327 0.944886 92 96 87
0.495617 -0.088689 1.42946 177 178 178
-0.324161 -0.061631 0.90392 96 92 87
0.123559 -0.529315 2.34883 123 93 78
-0.827596 -0.226299 1.71441 126 142 163
-0.257768 0.045789 0.936753 47 45 41
-0.379493 -0.032322 0.887542 126 128 133
0.305081 -0.517857 2.21728 191 183 184
-0.163628 -0.657458 2.30911 214 225 231
-0.132456 -0.634656 2.35577 159 155 143
0.012021 -0.480717 2.62094 79 76 36
-0.141469 0.097891 1.10264 117 114 115
1.06003 -0.577014 2.28329 142 141 144
-0.36306 -0.057991 0.866061 97 97 97
0.568308 -0.120661 1.5332 82 83 87
-0.269752 -0.006177 0.924723 122 121 123
0.058757 -0.531616 2.50371 151 122 109
-0.268156 0.159211 0.99819 50 49 46
-0.446833 0.076206 0.914765 88 91 83
-0.309405 -0.134396 1.40703 36 43 42
0.283587 -0.601108 2.35126 98 70 56
0.079256 -0.137733 1.60861 17 38 15
0.101871 -0.532325 2.41426 145 111 98
0.505209 -0.083042 1.45713 164 165 159
0.058857 -0.512162 2.50748 128 105 99
-0.566284 -0.295999 1.94889 0 0 13
0.10185 -0.532198 2.41369 145 111 98
-0.537987 -0.48263 1.8445 39 46 65
0.224528 0.048769 1.4919 92 88 84
1.01236 -0.600284 2.27074 82 89 101
-0.407439 0.07147 0.930251 44 43 41
-0.644355 -0.367053 2.13372 102 109 118
-0.290996 -0.055709 0.893199 80 75 72
-0.262726 0.00149 0.904305 86 84 86
0.05566 -0.572324 2.41438 180 156 149
0.05566 -0.572322 2.41435 180 156 149
-0.573463 -0.321706 2.08957 49 58 60
-0.493466 0.118631 0.943101 64 65 65
-0.710811 -0.448671 2.0192 123 127 134
-0.009448 -0.430463 2.35262 80 77 47
0.411637 0.065333 1.47455 170 172 177
-0.164011 -0.658836 2.3138 212 223 229
-0.310367 -0.021035 0.892023 110 111 112
-0.268168 0.159216 0.998234 50 49 46
-0.348294 -0.004365 0.876341 114 112 108
-0.721389 -0.296949 1.82305 126 131 141
-0.636208 -0.353139 2.10092 122 126 133
-0.13541 -0.344274 1.44033 46 70 50
0.250941 -0.474973 2.22906 116 109 102
0.447405 0.07631 1.54556 119 123 128
-0.701636 -0.43226 2.29535 155 156 160
-0.124034 -0.03771 1.61835 93 100 101
-0.455813 0.091908 0.926419 67 72 78
-0.136785 -0.068452 1.50894 68 109 45
-0.701269 -0.432031 2.29413 155 156 160
-0.375472 -0.031977 0.85342 70 71 71
-0.07744 -0.632431 2.58948 180 184 181
-0.385478 0.104197 0.973554 38 37 35
0.208808 -0.141428 1.43274 66 82 67
0.50394 -0.003373 1.52691 104 112 116
0.532796 0.096224 1.55655 81 87 93
-0.758033 -0.154587 1.57499 43 66 61
-0.089423 -0.618804 2.54819 117 121 122
-0.09907 -0.491359 2.36837 179 176 172
-0.281819 0.051344 0.904518 33 31 24
-0.116036 -0.344811 1.2766 149 168 168
0.650763 -0.598229 2.36187 120 118 120
0.010286 -0.20012 1.60573 51 84 46
-0.311274 -0.017382 0.880184 77 80 80
0.749627 -0.199319 2.55691 190 195 198
-0.670239 -0.473178 2.12101 180 185 188
-0.281202 -0.016444 0.933822 104 104 104
-0.392454 0.028565 0.872419 44 44 42
-0.077439 -0.63242 2.58943 180 184 181
-0.314391 -0.000684 0.894542 78 76 75
-0.45778 0.038432 0.931246 103 103 94
-0.773249 -0.472639 2.13316 194 195 203
-0.554301 -0.307385 1.93172 130 139 156
0.233377 -0.557859 2.24607 116 84 70
-0.559043 -0.642373 2.47191 75 79 104
-0.549481 -0.327523 1.92833 103 111 126
-0.463258 0.103258 0.94479 92 96 87
1.08329 -0.556317 2.3231 82 70 78
-0.434164 0.021082 0.851603 80 84 94
0.26947 -0.648558 2.21442 157 120 105
-0.587133 -0.536598 2.24336 48 55 72
-0.341107 -0.077203 0.886066 66 62 56
0.41994 0.057005 1.48282 88 88 86
0.53707 -0.607992 2.29657 111 128 147
-0.632148 -0.36459 2.04515 120 127 126
-0.123751 -0.10406 1.59863 21 40 25
0.47628 -0.026657 1.48014 132 135 136
-0.398707 0.011498 0.891738 89 89 90
-0.432891 0.101426 0.910386 44 45 36
-0.132464 -0.634669 2.35582 160 156 143
-0.340719 -0.660655 2.69459 112 135 146
0.888486 -0.539911 2.24932 80 73 82
-0.319333 0.041137 0.902829 86 83 82
0.479932 -0.54564 2.29465 98 103 103
-0.295964 -0.004201 0.890847 87 86 85
-0.388111 -0.035219 0.868663 148 148 151
-0.125365 -0.14496 1.61469 40 74 33
-0.410483 0.043743 0.864195 30 29 22
0.077782 -0.145539 1.53797 4 18 5
-0.543626 -0.568066 2.40738 70 76 96
-0.134923 -0.342511 1.43562 24 48 29
-0.391851 -0.042282 0.87274 184 187 187
0.079254 -0.137731 1.60859 17 38 15
0.112053 -0.059121 1.56429 42 47 54
-0.436329 0.021866 0.864591 24 25 25
-0.398134 -0.013098 0.888341 111 110 111
0.172415 -0.56805 2.42747 159 121 105
-0.068648 -0.042422 1.28846 4 27 5
-0.242043 0.185068 0.915119 186 179 178
-0.086598 -0.486842 2.59212 229 224 200
-0.601848 -0.454555 2.15023 53 59 73
-0.322278 -0.020688 0.887822 130 129 127
0.692753 -0.598455 2.25863 43 55 72
-0.34961 0.007283 0.887888 41 40 39
-1.07497 -0.281318 2.13009 116 136 154
-0.255237 0.04749 0.915399 104 101 97
0.142372 -0.180447 1.57348 76 109 69
-0.869395 -0.223893 1.69038 123 143 160
-1.01909 -0.296712 1.94639 59 80 95
-0.287848 -0.002453 0.900614 83 81 78
-0.705945 -0.49609 1.92944 180 180 187
-0.324602 -0.019912 0.901891 147 146 146
-0.726112 -0.33946 1.8274 33 57 83
-0.482416 0.138052 0.950079 93 95 86
-0.273016 0.017475 0.919294 57 56 54
-0.389616 0.012121 0.881151 34 34 33
-0.409159 0.069334 0.94426 34 33 34
-0.448804 0.083227 0.923536 39 45 31
-0.132445 -0.634582 2.3555 159 155 143
-0.450444 0.079242 0.937746 76 80 63
-0.355674 0.099476 0.964167 36 35 30
-0.376507 -0.03951 0.904494 73 76 77
0.482014 -0.292119 2.27131 198 194 195
-0.506467 -0.631736 2.22503 104 121 150
0.889377 -0.498697 2.12355 85 94 110
0.370936 -0.061996 1.38024 144 152 155
0.693184 -0.598872 2.26022 43 54 72
-0.494256 0.132507 0.969174 70 72 70
-0.104492 -0.3291 1.25198 134 157 151
0.964224 -0.612196 2.31184 98 89 95
-0.090434 -0.481079 2.27678 169 167 171
-0.152046 0.10337 1.1437 90 86 89
-0.38353 -0.456199 2.12063 104 129 114
-0.123387 -0.335605 1.28299 43 73 51
-0.413718 0.023883 0.867535 51 50 50
0.457928 0.091756 1.52017 82 86 91
-0.63387 -0.514664 1.98286 183 185 189
-0.431378 0.017602 0.858899 116 116 114
-0.256932 -0.003991 0.893787 81 80 85
0.511239 -0.0268 1.45974 76 82 82
0.739749 -0.550552 2.29106 160 158 169
-0.388861 -0.003444 0.880978 71 71 73
-0.364648 0.137827 0.986589 41 37 34
0.233366 -0.557829 2.24596 116 84 70
0.048001 -0.218728 1.84512 52 86 34
-0.303149 -0.007183 0.88064 97 96 95
0.497092 -0.027746 1.47491 118 123 125
0.042497 -0.225078 1.86883 8 35 5
-0.678061 -0.257963 1.72395 197 200 206
-0.34112 -0.077206 0.886101 66 62 56
-0.428212 0.119879 0.918298 93 94 84
0.025962 -0.440298 2.41173 92 91 65
0.310874 -0.507452 2.17101 147 127 126
-0.382438 0.117936 0.961098 83 80 75
-0.759601 -0.333643 1.94182 128 139 149
-0.584958 -0.597067 2.59562 79 93 105
-0.395977 0.021962 0.876254 33 33 33
-0.391872 -0.042281 0.872792 184 188 188
-0.39347 0.069466 0.913056 97 97 96
0.059327 -0.642575 2.40259 164 128 113
0.009297 -0.191701 1.57699 0 18 0
0.05653 -0.660456 2.25116 198 156 141
-0.277805 -0.028916 0.908254 124 116 110
-0.354866 -0.019344 0.880121 141 140 134
0.553039 -0.587886 2.29863 65 93 116
-0.272695 -0.092912 0.939376 110 117 126
0.60407 0.072025 1.55849 85 86 89
-0.059314 -0.193091 1.59305 50 92 37
-0.097538 -0.204305 1.62891 28 69 20
-0.129346 0.071696 1.10292 80 76 75
-0.417984 0.086385 0.954257 70 71 69
-0.556137 -0.276411 1.8765 44 52 64
0.469445 -0.075471 1.48703 78 83 85
-0.288647 -0.050431 0.902689 67 60 56
-0.269418 -0.006886 0.918101 158 157 159
-0.493465 0.118631 0.943099 64 65 65
-0.625664 -0.580182 2.077 220 220 227
-0.364646 0.137825 0.986581 41 37 34
-0.423201 0.005932 0.874216 91 90 91
0.158462 0.006372 1.51325 117 115 102
-0.102808 -0.485846 2.51598 148 140 121
-0.319887 0.108996 0.94359 92 87 79
-0.343492 0.11542 0.935645 55 50 44
-0.366578 -0.017293 0.888763 131 132 125
0.208825 -0.141429 1.43278 66 82 67
0.478532 -0.549963 2.32476 65 64 66
-0.339392 -0.023792 0.919381 95 94 94
-0.455175 0.096886 0.938166 81 84 72
-0.319333 0.041137 0.902828 86 83 82
-0.494293 0.132518 0.969246 70 72 70
-1.07529 -0.281393 2.13067 116 136 154
-0.427481 -0.007508 0.862712 81 80 77
-0.372201 0.141369 0.975737 27 23 19
-0.078154 -0.145102 1.39622 50 89 40
0.33824 -0.028654 1.49874 128 128 122
0.778635 -0.511092 2.17132 82 93 108
-0.616265 -0.346596 1.97819 124 129 128
-0.771248 -0.152731 1.50488 34 31 41
-0.501306 0.1295 0.978257 88 90 90
0.288693 -0.517541 2.11646 168 160 159
-0.323602 -0.026113 0.908565 97 96 96
0.832348 -0.585033 2.2114 26 39 57
-0.430998 -0.018463 0.891533 71 73 69
-0.728858 -0.237053 1.85282 196 200 207
-0.615428 -0.58434 2.05066 156 156 165
-0.364519 0.099996 0.927857 53 51 50
-0.631148 -0.390232 2.11115 124 138 152
0.016924 -0.474611 2.62103 21 16 17
-0.418153 0.001039 0.876832 119 118 120
-0.063013 -0.21376 1.67655 42 81 37
-0.311278 -0.017382 0.880197 77 80 80
-0.108531 -0.32942 1.24196 149 171 167
-0.454333 0.043845 0.923004 78 79 65
0.00811 -0.043411 1.69923 106 110 114
0.419153 0.077326 1.48811 143 145 149
0.541945 -0.606956 2.2878 60 66 80
-0.104489 -0.329092 1.25195 134 157 151
-0.44987 0.129419 0.944579 119 120 113
-0.505005 -0.639672 2.26268 110 126 150
-0.428223 -0.500513 2.09046 158 186 186
-0.160425 0.116467 1.11644 65 64 67
-0.292453 -0.007076 0.90061 79 78 77
-0.418193 0.047124 0.878823 16 16 7
0.532466 -0.068002 1.52341 215 216 211
-0.330543 0.019209 0.906687 39 39 39
-0.279552 -0.033486 0.882838 63 56 54
0.518678 -0.07056 1.46979 126 127 121
0.449884 0.075943 1.40527 120 125 130
-0.073419 -0.43702 2.49066 125 125 133
-0.070862 -0.655877 2.4039 181 203 223
-0.869399 -0.223893 1.69039 123 143 160
-0.871164 -0.343064 2.11677 71 86 103
-0.26623 0.021354 0.936331 111 105 98
-0.36871 -0.01745 0.894167 128 129 121
-0.403776 0.016246 0.883625 68 69 72
-0.116031 -0.344793 1.27654 149 168 168
-0.507498 -0.604511 2.15975 112 132 161
-0.583139 -0.560411 2.1304 66 73 93
-0.316286 0.005744 0.907941 90 89 84
-0.794488 -0.382489 2.23298 202 208 218
-0.249989 -0.01324 0.878148 64 64 66
-0.097553 -0.204351 1.62932 29 69 20
0.235409 -0.588649 2.39825 134 101 85
0.667846 -0.474344 2.35351 186 207 229
0.130601 -0.150099 1.38784 22 49 23
0.361053 0.066629 1.4546 85 83 78
-0.384926 0.013686 0.878578 122 123 119
-0.388875 -0.003428 0.881004 71 72 73
0.375143 -0.059332 1.45621 136 139 142
0.726205 -0.200218 2.52649 176 178 180
0.340164 0.005543 1.44591 105 103 93
-0.264188 0.057401 0.901076 35 33 29
0.191481 -0.541514 2.38217 161 175 170
-0.508875 -0.465566 2.01808 169 176 191
0.055615 -0.214067 1.79938 39 75 20
-0.508536 -0.246158 1.78034 54 72 71
-0.695973 -0.222813 1.67769 61 68 86
-0.380962 0.014886 0.856731 57 58 57
-0.307632 -0.007588 0.908093 40 39 39
0.02596 -0.440127 2.41079 92 91 65
-0.268782 0.006552 0.895247 59 55 54
-0.33451 -0.06751 0.887761 80 78 72
0.200473 -0.178416 1.62272 133 155 138
-0.282418 -0.00236 0.93405 118 114 112
-0.658597 -0.451599 2.08373 121 127 135
-0.658579 -0.451585 2.08368 121 127 135
-0.463378 0.103292 0.945033 92 96 87
-0.442055 0.047251 0.919536 68 68 59
0.681814 -0.333154 2.33589 225 228 231
0.304083 -0.592276 2.25792 169 131 112
-0.102882 -0.199872 1.61438 0 33 0
-0.651618 -0.346882 2.15089 104 108 118
0.114307 -0.53375 2.38644 140 105 90
-0.086622 -0.070311 1.51078 1 32 0
-0.348301 -0.004365 0.876359 114 112 108
0.231892 0.04596 1.42571 91 90 87
-0.132156 -0.69837 2.36276 158 155 154
-0.342926 -0.057699 0.883885 47 46 42
-0.63112 -0.34375 2.04666 137 142 146
0.313 -0.535122 2.18315 167 157 154
-0.379416 0.135906 0.951077 76 73 70
-0.075825 -0.056362 1.44432 36 70 20
-0.131344 -0.634317 2.27708 195 195 192
-0.247208 0.03944 0.918201 59 56 51
-0.376559 -0.039504 0.904623 72 75 76
0.048525 -0.124211 1.25789 1 21 0
-0.30894 -0.117785 2.19246 21 52 4
0.290562 -0.477343 2.58846 176 150 135
-0.428071 -0.500343 2.08974 158 186 186
-0.517675 -0.516433 2.34432 108 125 121
-0.370808 -0.003205 0.878051 65 63 61
-0.360924 -0.041515 0.921976 103 104 101
-0.318262 -0.012716 0.874095 74 73 72
0.411659 0.065337 1.47464 170 172 177
-0.55178 -0.321649 1.90634 103 111 126
-0.410799 0.016434 0.897529 67 68 72
0.581344 0.100154 1.5914 96 90 80
-0.508831 -0.465525 2.0179 169 176 191
-0.076451 -0.064462 1.47846 51 88 29
-0.455434 0.082447 0.938262 82 87 71
-0.148716 -0.223561 1.59848 19 53 11
-0.394827 -0.023086 0.870299 94 94 92
0.49488 -0.074194 1.5092 102 108 110
-0.305972 -0.099855 0.902892 64 63 69
-0.299008 0.000472 0.885925 125 124 122
-0.269099 -0.001508 0.919289 93 90 91
-0.342674 -0.012784 0.892909 128 125 123
0.511607 -0.08273 1.46609 50 51 46
-0.298748 -0.094878 0.895842 39 39 46
1.01786 -0.600862 2.26906 52 58 73
-0.289286 -0.075529 0.883119 68 67 67
-0.548384 -0.551724 1.98309 103 108 123
-0.104499 -0.329124 1.25207 134 157 151
-0.399169 -0.394232 1.87289 36 62 39
-0.102822 -0.485893 2.51623 148 140 121
-0.531976 -0.597169 2.35089 76 88 112
-0.086657 -0.070344 1.51123 1 32 0
0.29931 -0.000382 1.43272 126 125 118
-0.54326 -0.337105 1.87327 131 143 160
0.124071 -0.51068 2.35805 97 76 73
0.464231 -0.476746 2.19586 165 162 165
-0.595531 -0.447912 2.18663 95 98 110
-0.098821 -0.079666 1.55066 0 15 0
-0.589828 -0.376949 2.09468 113 123 138
-0.385143 0.007019 0.829868 49 49 52
-0.298602 -0.016141 0.864299 75 76 76
0.597599 -0.53026 2.17099 111 106 105
0.51344 0.084952 1.47609 158 161 163
0.494747 -0.071512 1.45032 139 140 136
-0.981485 -0.299881 1.94174 95 116 129
-0.245153 0.010454 0.953973 44 44 50
-0.357558 -0.010905 0.870504 112 111 106
0.552941 0.066387 1.52562 134 134 128
-0.098126 -0.071125 1.54715 50 86 34
0.307436 -0.528468 2.38581 110 132 128
0.239787 -0.47641 2.25361 59 60 55
-0.325255 -0.047026 0.88958 68 67 63
0.320602 0.063355 1.43557 108 106 97
-0.399862 0.084158 0.922615 37 37 34
-0.330343 -0.010707 0.869967 108 107 105
-0.629341 -0.292592 1.97989 110 115 123
0.140327 -0.143224 1.42917 70 94 68
0.62611 -0.071678 1.57555 103 107 115
-0.339537 0.007967 0.875313 41 39 37
-0.446404 0.121493 0.950723 43 44 36
-0.337801 -0.078784 0.902894 68 65 58
-0.558889 -0.329045 1.93091 78 87 102
0.079434 -0.46059 2.48667 63 47 53
-0.243909 0.018353 0.926524 44 43 41
-0.455154 0.096882 0.938123 81 84 72
-0.523004 -0.535721 1.88748 110 115 130
0.184027 -0.010898 1.43581 91 90 83
0.471238 0.030328 1.52643 131 129 124
-0.408076 0.089011 0.94082 46 46 44
-0.354856 -0.032203 0.887236 87 87 83
-0.243189 0.041538 0.900391 73 71 66
-0.37207 0.006349 0.912503 104 103 102
-0.105496 -0.057385 1.52064 3 38 0
-0.164902 -0.212915 1.5248 50 76 45
0.227434 -0.48286 2.34175 126 117 115
-0.307612 -0.007588 0.908031 40 39 39
-0.277043 -0.02381 0.89922 87 83 81
-0.297025 0.000288 0.914573 65 63 60
0.555972 0.000681 1.47432 100 107 116
-0.389277 0.024773 0.880546 54 54 53
-0.129886 0.078317 1.08234 134 129 128
-0.449071 0.082074 0.935302 55 60 38
-0.354774 0.146341 0.974329 66 61 57
0.16187 0.0138 1.51078 84 82 78
-0.336638 -0.132696 1.51428 60 66 68
-0.307657 0.02235 0.910103 47 47 48
-0.78834 -0.161301 1.54035 58 56 66
0.494133 0.035066 1.46636 134 138 140
-0.554776 -0.290308 1.79892 136 140 147
-0.475996 0.039332 0.953063 35 37 38
0.226874 -0.545457 2.3217 203 201 197
0.025902 -0.43734 2.3956 91 89 64
-0.07814 -0.145086 1.39607 50 89 40
0.348549 -0.000415 1.47978 108 107 99
0.529806 -0.031418 1.53304 85 90 92
-0.159287 -0.090054 1.66703 55 78 46
0.222781 0.037061 1.44523 109 107 106
-0.349233 -0.05027 0.919589 74 71 69
0.466161 -0.316302 2.1877 113 85 94
0.190064 -0.158177 1.4945 34 65 37
0.778532 -0.511033 2.17103 82 93 109
0.283503 -0.336631 2.43911 177 171 165
-0.424125 0.002637 0.854003 81 80 75
0.540383 -0.03716 1.42894 161 166 170
-0.102605 -0.064826 1.5292 34 70 24
0.324522 -0.347849 2.44386 200 183 178
-0.371198 -0.144993 1.50906 21 28 24
-0.016886 -0.07933 1.4604 50 81 29
-1.07502 -0.281332 2.13019 116 136 154
-0.427113 0.00658 0.880156 102 102 102
-0.31554 -0.077385 0.891996 107 106 103
0.532842 0.09624 1.55667 81 87 93
-0.583603 -0.55259 2.17335 64 71 90
0.49615 0.095639 1.56982 84 89 95
-0.372869 -0.058901 0.900447 128 127 126
0.39449 0.002708 1.48218 141 142 137
-0.442741 0.071757 0.912388 24 28 6
0.010306 -0.20023 1.60666 51 84 46
-0.446823 0.076205 0.914745 88 91 83
-0.119066 -0.065294 1.52011 76 115 61
-0.098116 -0.071119 1.54701 50 86 34
-0.767809 -0.365208 2.12876 247 251 254
-0.064241 -0.087451 1.49124 72 110 60
-0.351113 -0.055567 0.874636 38 39 38
-0.111448 -0.101509 1.60419 71 102 66
0.339103 -0.568124 2.37208 124 110 110
-0.368094 0.145371 0.968544 109 103 96
0.466134 0.003723 1.49045 121 125 125
-0.333199 -0.099532 0.894439 80 79 74
-0.106285 -0.043857 1.40739 40 59 41
0.411638 0.065333 1.47455 170 172 177
-0.081658 -0.483442 2.57402 209 205 188
-0.155651 -0.208979 1.50113 50 77 43
-0.052706 -0.082341 1.42912 29 55 26
-0.294968 -0.01226 0.856298 31 31 32
0.28279 -0.465688 2.52022 185 158 142
-0.359688 -0.03414 0.890814 82 83 80
-0.125457 -0.111037 1.71218 59 78 65
-0.577047 -0.34243 1.98978 59 68 84
-0.43623 0.021866 0.864414 24 25 25
-0.542059 -0.48014 1.86913 131 139 158
-0.275386 -0.064851 0.89165 107 103 99
-0.408272 -0.594678 2.55245 62 89 92
-0.366679 0.137419 0.93029 56 50 45
-0.195195 -0.242388 1.80213 17 47 18
-0.521963 -0.605046 2.3676 105 115 135
0.494038 0.035066 1.46606 134 138 139
-0.405056 0.125086 0.941739 60 59 54
0.064299 -0.080651 1.34295 0 12 0
-0.110406 -0.331907 1.32275 44 73 41
-0.447593 0.095243 0.938839 43 47 28
-0.728668 -0.163701 1.69782 25 49 33
0.576118 -0.00459 1.51321 108 114 123
-0.109501 -0.073934 1.57109 49 85 38
-0.229396 -0.168057 1.90184 19 36 35
-0.374052 0.101112 0.942796 43 42 40
-0.634299 -0.376973 2.33903 66 71 79
-0.273441 0.056654 0.921472 48 45 41
-0.379491 -0.032322 0.887536 126 128 133
0.144877 -0.444755 2.25351 95 86 90
-0.628447 -0.033805 1.27371 51 64 62
-0.530502 -0.548718 2.06881 123 132 154
-0.110266 -0.146272 1.60314 25 57 19
-0.128921 -0.096369 1.52563 45 69 39
0.406721 0.076666 1.54286 86 85 87
-0.326557 0.043892 0.896501 51 49 46
0.397041 -0.031738 1.51025 136 140 138
-0.094566 -0.194981 1.6304 0 35 0
0.320631 0.063353 1.43572 108 106 97
-0.158255 -0.055385 1.5555 27 68 5
-0.297937 -0.01647 0.864032 79 80 81
-0.129348 0.071697 1.10294 80 76 75
-0.297023 0.000289 0.914568 65 63 60
-0.374283 -0.002548 0.876167 75 74 71
-0.46837 0.101146 0.950617 97 103 99
-0.446955 0.056986 0.915909 68 69 52
-0.316282 0.005744 0.907931 90 89 84
-0.409729 -0.019821 0.863112 144 143 141
0.326003 -0.038027 1.52192 88 88 83
-0.880384 -0.262651 1.7083 66 83 95
0.551874 0.002608 1.52163 101 111 117
-0.395084 0.07271 0.927231 23 22 23
0.036417 -0.158851 1.57404 63 97 47
-0.303411 -0.021432 0.919789 32 32 35
-0.29595 -0.004199 0.890806 87 86 85
-0.283343 0.031376 0.929196 69 65 59
-0.423473 0.137547 0.962051 57 54 51
-0.339346 -0.023792 0.919248 95 94 94
-0.616344 -0.346643 1.97843 124 129 128
-0.115985 -0.234328 1.59074 55 100 44
-0.038434 -0.149206 1.37801 0 17 0
0.41979 0.097237 1.42271 86 83 85
-0.30406 -0.069251 0.902332 78 76 79
0.695364 -0.333825 2.35081 193 199 206
0.49693 -0.027726 1.47438 118 124 125
-0.341576 0.007982 0.881119 44 41 40
0.142829 -0.140249 1.39706 68 95 65
-0.388885 -0.003428 0.881027 71 72 73
0.040626 -0.128523 1.33051 10 36 9
0.496127 -0.067746 1.44497 110 111 107
-0.364919 -0.022591 0.87491 69 70 66
-0.356576 -0.05903 0.881605 133 132 131
-0.386193 0.00033 0.860751 36 36 39
0.082522 -0.124207 1.22409 64 100 51
-0.675514 0.024177 1.30283 6 16 33
-0.397696 0.080262 0.919269 123 122 119
0.752445 -0.56615 2.35312 83 115 129
0.260992 -0.5781 2.29194 171 141 125
-0.243866 0.020727 0.881643 85 81 73
0.48545 0.102 1.50756 88 92 97
0.209678 0.052029 1.48806 119 109 103
0.051952 -0.18113 1.66714 53 89 45
0.300862 -0.038874 1.43367 138 137 135
-0.440523 0.118163 0.945837 25 25 17
-0.126594 -0.302176 1.1566 141 170 173
-0.385908 -0.002477 0.885866 76 76 75
-0.553408 -0.571022 2.03288 97 102 119
0.464188 -0.4767 2.19565 165 162 165
-0.297169 -0.083856 0.893925 95 94 96
-0.369999 -0.003558 0.876423 54 52 50
-0.289305 -0.041971 0.906612 76 70 68
-0.408298 0.098858 0.927583 48 49 48
0.036423 -0.158816 1.57363 62 97 47
0.245718 0.040039 1.47474 97 99 100
-0.291529 -0.076939 0.889075 64 63 63
-0.391881 -0.042281 0.872816 185 188 188
-0.563606 -0.317975 1.99758 72 78 92
-0.383266 0.013532 0.873957 122 122 119
-0.127649 -0.323616 1.21333 54 87 67
-0.109502 -0.073934 1.57107 49 85 38
-0.316275 0.005748 0.907907 90 89 84
-0.318281 -0.012716 0.874148 74 73 72
-0.607246 -0.344653 2.16517 116 122 133
0.594368 -0.043842 1.51041 104 107 112
0.108547 -0.492758 2.62333 50 35 41
-0.389789 0.121191 0.8981 47 46 41
-0.405088 0.101725 0.921996 124 125 123
-0.42028 0.004559 0.894348 73 72 74
0.710361 -0.552933 2.29819 81 105 121
-0.638936 -0.636747 2.18866 110 115 129
0.46614 0.00373 1.49045 121 125 125
-0.120283 -0.347038 1.44529 52 78 55
-0.14445 -0.323068 1.20499 200 221 225
-0.156139 -0.661163 2.43997 158 168 173
0.599137 0.076458 1.53866 144 146 149
-0.585093 -0.597216 2.59625 79 93 105
-0.051163 -0.035042 1.22416 73 82 79
0.652767 -0.147529 2.39954 106 67 77
-0.619637 -0.556965 2.22345 66 79 102
-0.552022 -0.5096 1.93724 106 117 140
0.396585 0.07512 1.49485 113 113 115
-0.10935 -0.565349 2.27325 178 159 148
-0.401848 -0.041503 0.883821 97 103 100
-0.288813 -0.059324 0.900965 125 117 110
-0.433454 0.119972 0.942801 46 47 37
0.064286 -0.080539 1.34199 0 13 0
-0.410146 -0.014846 0.86144 113 111 107
0.572039 -0.051892 1.46538 87 92 95
1.01804 -0.600967 2.26948 52 58 73
0.015319 -0.180305 1.57814 51 78 54
-0.450602 0.133289 0.969075 46 45 35
0.484455 -0.086791 1.42554 119 120 118
0.451002 -0.018905 1.49827 108 112 109
-0.144362 -0.035802 1.38746 85 104 81
0.505694 -0.336929 2.31901 190 180 183
-0.260901 0.003731 0.885919 71 68 67
0.692362 -0.540151 2.26334 110 119 135
0.032189 -0.065365 1.40719 45 68 44
0.467657 -0.026782 1.46766 97 101 101
-0.239101 0.028404 0.94199 52 51 51
-0.42712 0.006584 0.880158 102 102 102
-0.243959 -0.050008 0.90422 53 51 54
-0.11102 -0.05834 1.4771 41 77 35
0.289864 0.027827 1.46106 124 125 125
0.47635 0.019942 1.50145 91 94 94
-0.342641 0.002223 0.879948 84 81 78
-0.22939 -0.168053 1.90178 19 36 35
-0.367907 -0.017378 0.892127 130 130 123
0.18494 -0.491549 2.48088 58 37 40
-0.287133 -0.037452 0.907512 141 134 131
0.481995 0.100961 1.5047 32 35 39
-0.395413 -0.011485 0.867516 53 54 54
0.185106 -0.134656 1.3772 10 35 9
0.658222 -0.505062 2.1649 101 109 120
-0.442732 0.071755 0.91237 24 28 6
-0.060893 -0.218006 1.65573 41 79 36
-0.299604 -0.027858 0.897908 67 67 70
-0.054365 -0.196262 1.59024 0 28 0
-0.310589 0.030734 0.89004 53 53 53
0.90527 -0.610956 2.30334 82 76 83
-0.35451 -0.024588 0.871138 96 95 89
0.176146 -0.465207 2.29829 80 73 78
-0.322737 -0.042198 0.888924 52 51 47
0.513378 -0.005613 1.53798 90 99 102
0.495264 0.103162 1.52475 94 97 103
-0.1537 -0.209277 1.54824 52 85 48
-0.317081 -0.332807 1.61297 41 69 40
-0.326947 -0.049373 0.911567 77 76 72
-0.209227 -0.170422 1.84279 65 86 83
-0.33552 -0.061162 0.876361 92 90 84
-0.088053 -0.646271 2.36835 181 189 197
-0.358009 0.099482 0.930078 12 12 11
0.200218 -0.016252 1.46365 132 132 131
-0.336791 -0.052524 0.863054 61 60 57
0.366539 -0.013491 1.45527 88 91 92
-0.358202 0.133733 0.981212 46 44 41
-0.017488 -0.208897 1.63478 44 76 45
